ncols        598
nrows        37
xllcorner    108.335
yllcorner    32.9625000006
cellsize     0.000833333333
NODATA_value -9999
620 630 604 581 589 602 585 563 556 576 600 605 605 596 574 549 529 516 513 520 525 515 505 492 483 482 475 465 456 442 425 414 429 438 438 434 411 400 399 401 419 450 470 487 502 507 512 516 515 516 520 515 503 486 470 458 453 453 457 463 473 478 494 511 513 507 497 487 500 524 534 526 497 476 466 488 524 553 558 546 524 498 476 472 470 465 464 457 448 460 484 513 542 570 599 622 640 651 658 663 669 678 683 691 696 702 707 708 713 721 733 745 753 758 759 752 738 722 705 706 703 712 725 733 729 722 714 707 694 689 688 685 669 635 618 599 598 598 610 626 640 658 678 695 709 712 707 695 684 670 663 661 688 725 772 792 788 775 761 749 746 736 729 701 690 713 740 765 773 759 744 724 696 669 646 618 587 565 571 587 604 628 654 678 691 700 712 723 716 681 648 618 598 592 581 562 536 520 509 501 497 495 490 497 491 492 491 486 510 525 532 528 509 497 521 554 587 626 644 653 642 628 614 606 616 651 689 731 742 744 743 755 774 787 799 780 771 760 736 716 697 668 643 631 605 575 537 519 532 555 557 546 560 576 590 610 621 641 660 652 633 629 621 624 646 665 678 674 672 678 687 701 719 738 766 796 833 869 888 898 897 897 889 872 855 843 826 814 801 774 750 722 701 683 660 633 611 609 610 622 623 627 647 675 691 692 689 679 693 718 737 745 737 722 665 614 564 534 535 541 545 565 597 636 672 701 725 744 751 750 751 757 772 777 775 772 781 783 781 781 785 791 794 800 802 798 798 810 827 848 878 905 940 976 1007 1035 1072 1101 1132 1157 1184 1208 1230 1257 1263 1250 1205 1154 1111 1072 1029 1001 964 921 895 896 898 885 860 825 832 837 850 844 829 815 809 823 835 835 827 831 835 818 785 745 729 710 686 660 631 614 591 590 582 582 590 601 614 634 643 644 666 681 702 718 741 767 795 820 842 871 903 936 968 1000 1035 1064 1072 1072 1055 1037 1028 1041 1065 1090 1115 1141 1167 1181 1187 1189 1199 1209 1223 1242 1257 1272 1277 1268 1258 1251 1226 1189 1142 1086 1040 1008 995 1004 1025 1055 1082 1092 1071 1030 984 954 929 911 868 818 802 813 823 844 869 895 932 978 1012 1028 1014 994 1002 1030 1073 1115 1147 1158 1164 1155 1152 1143 1135 1143 1148 1139 1114 1093 1069 1056 1046 1043 1043 1045 1053 1038 1017 980 942 904 873 845 820 806 812 827 856 881 877 858 837 840 835 825 803 785 766 745 730 710 691 654 624 587 558 534 528 554 592 618 628 641 656 674 697 729 758 802 823 822 782 727 682 634 599 579 568 593 629 661 694 725 746 749 739 733 741 751 784 818 869 910 946 981 1012 1044 1089 1107 1074 1024 987 947 917 895 867 840 805 770 738 708 680 657 641 628 609 588
613 618 596 566 575 586 575 546 539 556 577 579 573 563 551 539 523 509 498 491 490 500 496 503 488 471 464 460 453 440 427 414 421 428 422 409 401 399 399 409 440 460 473 482 483 492 500 510 512 521 534 537 526 513 498 488 485 486 488 492 498 504 508 518 521 506 483 485 509 527 529 519 497 472 465 487 521 544 550 540 524 497 473 463 455 453 452 447 451 461 486 508 537 573 597 629 652 671 684 690 695 703 710 718 723 727 731 733 739 746 759 770 779 784 781 771 755 738 734 734 738 741 741 738 727 708 681 661 651 648 652 656 646 620 598 598 604 620 638 654 669 682 700 718 733 736 728 717 707 695 682 675 692 721 763 780 779 757 731 702 694 700 700 680 663 682 727 764 767 762 747 729 710 677 646 611 578 565 572 590 603 621 644 676 701 716 738 735 718 683 655 637 631 622 608 576 548 527 512 502 495 492 490 485 484 493 484 495 507 515 523 515 496 504 539 561 583 613 647 658 653 654 643 634 629 640 671 717 737 752 774 772 767 771 776 790 790 779 750 715 684 651 620 591 580 564 537 517 537 549 545 562 594 592 588 595 612 636 649 644 629 617 623 639 649 665 668 670 676 684 680 687 703 719 740 766 806 843 858 866 880 896 900 894 892 879 866 858 834 806 779 751 732 707 676 652 633 608 599 598 599 610 624 636 645 647 640 638 659 682 687 695 712 702 656 615 568 541 525 528 527 560 598 640 678 712 740 763 777 788 790 801 805 808 806 804 811 809 806 808 813 824 835 850 858 852 850 846 847 862 884 919 950 985 1021 1057 1081 1104 1122 1150 1182 1195 1205 1218 1234 1227 1196 1149 1090 1049 1006 978 946 915 877 860 856 853 829 798 795 801 806 808 812 810 792 780 775 770 771 778 792 789 774 743 709 692 677 652 617 592 581 586 585 580 580 593 615 640 654 660 662 675 691 713 734 757 785 809 835 861 891 924 955 986 1024 1060 1087 1094 1093 1088 1070 1060 1075 1096 1121 1145 1174 1198 1213 1230 1236 1242 1247 1254 1259 1274 1274 1244 1206 1187 1170 1160 1131 1075 1024 980 954 954 973 1004 1038 1066 1055 1024 974 933 906 892 860 816 793 810 827 855 884 919 958 984 1001 1000 973 962 973 1005 1048 1093 1122 1126 1110 1092 1088 1095 1118 1138 1156 1157 1138 1106 1088 1079 1074 1072 1083 1089 1073 1049 1008 970 934 908 882 859 847 850 859 873 886 908 903 892 886 872 858 827 791 760 726 700 696 691 688 669 628 585 545 528 532 559 588 609 607 615 632 659 691 721 762 793 817 806 755 706 661 619 587 568 579 614 660 695 714 738 768 784 790 777 783 798 815 837 874 908 947 980 1010 1040 1083 1103 1079 1036 997 952 922 889 859 828 791 754 722 691 675 680 686 668 636 608
604 613 588 552 558 569 561 534 527 544 564 566 549 541 537 536 516 504 499 489 476 472 492 497 493 477 464 458 453 445 431 416 412 419 407 398 398 402 399 414 437 457 463 468 470 481 491 496 501 529 538 541 529 523 517 504 502 503 504 506 515 520 506 508 506 490 477 485 511 519 516 501 487 470 465 482 510 525 524 519 508 486 460 446 445 445 445 449 457 478 500 519 536 560 601 631 659 683 703 716 720 724 729 736 744 749 752 756 758 767 782 793 804 809 804 789 769 763 758 760 763 760 745 731 706 678 655 637 624 616 617 618 608 596 592 614 637 648 666 683 699 715 732 747 760 763 756 745 733 719 703 689 699 724 751 758 742 716 696 672 665 669 664 652 641 659 696 729 745 744 731 715 706 674 637 597 565 565 592 608 618 628 647 671 705 733 762 752 722 696 678 667 658 645 618 584 549 521 505 493 490 488 488 495 494 481 490 501 502 502 506 501 493 521 538 557 572 587 615 634 654 673 679 670 662 659 670 697 729 768 790 774 750 727 737 754 757 747 728 720 690 656 623 594 575 557 533 517 528 535 556 593 629 634 624 603 599 611 623 625 620 617 630 633 646 648 653 653 659 665 668 679 692 707 725 753 780 809 814 822 843 869 884 891 907 909 905 890 870 840 809 785 758 726 690 674 658 638 613 597 590 586 596 604 613 612 610 619 630 641 641 668 684 673 637 608 570 544 531 525 525 555 596 636 677 711 739 769 794 812 818 836 843 843 833 829 833 834 824 822 823 829 849 872 888 900 908 897 889 892 909 932 967 1005 1047 1082 1110 1135 1156 1162 1170 1179 1172 1179 1204 1219 1187 1140 1092 1044 996 961 930 900 868 844 826 816 800 778 765 764 763 768 785 792 781 763 737 717 711 729 747 765 758 744 713 684 672 647 613 580 575 575 577 584 589 594 607 623 635 644 659 673 682 704 727 752 779 802 826 854 885 920 950 985 1017 1052 1071 1092 1102 1111 1110 1104 1094 1107 1130 1156 1178 1205 1222 1235 1238 1235 1236 1233 1235 1244 1229 1205 1142 1109 1101 1111 1100 1069 1012 963 926 921 934 964 1000 1031 1042 1030 979 927 893 862 843 815 789 798 831 862 902 943 991 999 985 964 943 937 966 1001 1043 1072 1079 1072 1051 1035 1032 1040 1067 1093 1118 1130 1117 1113 1111 1104 1101 1107 1120 1114 1086 1051 1017 984 961 943 921 901 890 885 874 875 877 881 884 884 884 866 839 814 781 744 715 678 657 669 680 673 629 578 540 526 541 560 577 582 594 618 644 668 703 739 775 798 810 788 748 714 675 629 591 568 588 631 689 737 746 753 778 807 826 832 827 839 856 872 884 919 948 978 1013 1044 1082 1104 1083 1043 1005 960 914 888 853 825 788 753 725 714 716 732 720 694 657 622
594 604 578 544 537 555 549 526 520 541 562 556 532 519 527 524 509 494 486 479 470 462 467 484 490 482 469 459 455 450 435 420 412 404 398 398 398 398 406 414 430 439 445 450 455 468 471 478 505 525 532 523 516 517 516 507 498 499 505 515 528 527 508 491 485 473 468 487 504 503 493 488 481 471 465 476 493 500 503 502 489 463 442 445 446 448 455 467 486 503 522 538 552 563 589 627 655 685 713 731 733 730 721 721 729 734 738 744 749 768 789 810 824 831 825 810 797 793 786 777 772 762 743 713 687 661 644 633 624 610 595 587 590 586 610 646 667 684 696 712 730 743 759 778 790 792 786 774 761 746 728 712 714 729 736 736 714 691 671 650 636 639 640 634 621 633 659 681 701 710 699 681 666 641 608 571 565 579 617 635 643 650 663 681 709 742 767 759 730 707 695 688 681 657 624 581 550 523 499 488 488 494 506 502 485 481 494 497 493 489 493 490 500 518 532 542 552 564 582 612 646 679 696 699 702 697 695 711 743 762 767 749 702 681 686 694 694 699 709 709 698 669 638 610 583 558 532 517 518 533 560 589 628 645 651 646 627 610 613 613 615 624 622 628 634 635 635 638 644 651 664 677 692 716 735 759 765 769 763 775 793 820 839 867 891 901 904 913 899 869 845 817 780 740 717 706 683 653 639 627 603 586 577 578 582 583 588 600 608 604 623 664 674 649 612 585 554 535 525 526 538 575 612 653 682 716 744 771 798 819 842 864 868 867 861 866 867 855 840 834 844 854 851 874 897 924 939 946 939 931 934 960 987 1023 1058 1090 1112 1145 1171 1167 1161 1145 1145 1159 1183 1195 1174 1139 1109 1059 1007 959 921 892 865 836 817 797 779 759 745 737 734 736 747 752 751 736 713 694 679 684 707 730 748 750 728 696 660 638 610 599 581 575 582 591 596 605 603 606 622 641 652 663 682 698 725 751 777 798 826 854 885 920 942 971 1008 1032 1048 1062 1083 1108 1117 1123 1120 1119 1137 1161 1180 1199 1210 1210 1201 1192 1180 1179 1185 1202 1181 1144 1091 1050 1040 1055 1064 1053 1007 955 911 888 899 931 960 991 1027 1026 986 940 901 870 844 811 787 792 824 873 915 959 1002 999 967 935 916 931 974 1010 1052 1067 1055 1019 1005 988 989 998 1021 1039 1061 1068 1094 1117 1139 1138 1138 1147 1142 1125 1091 1066 1045 1031 1011 981 945 914 896 883 861 841 825 818 815 816 817 807 798 782 763 743 712 668 632 631 644 649 621 575 533 523 535 553 564 578 604 634 659 684 718 749 766 773 770 756 741 726 685 638 589 565 588 638 698 757 785 788 797 825 851 875 890 887 901 916 927 936 958 986 1012 1049 1087 1104 1080 1038 993 947 924 894 857 819 789 779 762 753 765 754 739 700 659 629
570 580 572 538 520 534 532 515 510 534 551 543 525 509 507 506 494 476 469 458 455 450 444 461 471 472 474 464 456 447 429 418 410 400 398 402 408 405 403 412 425 434 433 426 429 437 444 466 487 505 508 503 498 495 497 491 492 505 519 523 521 516 494 472 463 456 458 475 488 484 481 480 478 474 465 465 478 484 491 489 474 442 450 458 454 460 475 495 517 534 547 560 568 578 592 619 653 684 706 714 712 702 684 682 686 692 696 709 729 755 788 808 833 852 847 838 829 820 803 787 774 754 729 706 685 672 659 647 633 620 603 589 577 589 623 658 686 708 723 738 759 776 796 809 819 819 810 799 787 769 750 733 735 738 733 717 697 678 662 640 625 616 618 615 610 617 625 639 656 671 666 648 624 603 579 565 565 603 645 662 664 671 684 703 729 755 769 762 735 711 693 689 686 669 628 586 561 533 511 504 503 515 517 508 481 481 488 492 489 487 480 493 508 526 542 556 566 569 575 597 625 666 691 712 727 728 727 734 764 767 754 713 675 645 634 640 637 645 656 670 672 657 639 620 593 561 533 518 515 538 560 586 616 652 671 674 655 641 642 645 635 631 629 622 622 624 632 645 653 658 673 686 700 726 750 774 767 750 741 733 750 775 797 824 842 860 887 905 907 900 875 839 791 766 754 723 702 672 665 648 630 603 583 570 562 557 562 577 578 589 619 643 652 619 579 547 521 515 522 532 556 587 626 657 683 714 749 776 805 830 844 865 876 876 878 886 898 883 854 848 866 877 894 885 899 925 953 967 980 983 981 986 1003 1033 1057 1083 1106 1139 1157 1147 1128 1123 1125 1157 1176 1168 1148 1123 1100 1074 1032 986 943 904 873 848 816 795 774 757 737 721 715 707 704 704 701 700 692 682 663 657 680 701 720 726 709 689 667 635 612 595 587 575 589 603 598 605 611 621 633 648 666 682 690 707 722 750 779 802 825 852 889 925 946 970 990 1008 1019 1030 1051 1068 1088 1099 1106 1118 1141 1159 1175 1194 1196 1185 1171 1146 1121 1110 1118 1131 1126 1101 1056 1009 994 1006 1032 1035 999 947 901 868 866 894 925 956 1005 1016 983 957 936 899 860 825 782 786 814 870 927 974 990 983 937 910 906 939 972 1009 1058 1072 1038 989 963 960 951 966 982 1004 1003 1031 1071 1125 1161 1177 1174 1175 1159 1126 1091 1063 1044 1026 1016 989 945 910 876 843 822 800 786 773 767 759 755 744 733 724 718 704 679 639 611 597 597 606 596 562 530 521 520 539 551 578 613 636 657 681 720 733 735 716 702 704 709 701 668 617 573 559 597 648 706 773 810 832 843 859 887 916 937 940 947 968 983 979 981 993 1018 1053 1091 1100 1067 1024 986 956 922 895 852 816 818 810 795 803 786 768 731 696 675 675
547 568 565 534 506 506 505 491 495 509 529 528 522 510 499 491 480 470 456 462 461 450 441 436 457 469 479 469 453 439 422 410 401 397 406 420 423 417 407 403 413 424 420 415 411 409 413 424 440 462 473 475 481 483 485 482 496 518 527 524 514 490 469 448 432 432 444 460 471 475 472 474 472 469 464 461 471 480 487 482 456 441 458 469 481 483 496 518 540 559 575 584 591 597 604 620 644 670 681 676 668 651 654 661 669 676 691 711 730 747 772 803 834 857 868 866 854 836 817 795 774 753 730 713 702 689 675 658 643 636 617 594 573 585 612 652 685 712 726 745 773 796 810 817 818 814 807 801 802 793 774 754 752 750 743 716 694 674 655 636 620 611 602 598 594 602 609 615 621 629 637 618 600 578 564 559 580 607 654 677 690 695 707 729 753 774 777 765 738 709 681 674 680 665 640 602 576 550 536 528 535 540 531 499 476 476 486 490 485 477 483 499 519 539 551 560 571 577 586 603 623 653 688 704 718 718 719 741 775 778 739 696 659 635 610 593 594 603 609 618 623 623 620 604 584 557 525 515 517 540 566 595 619 649 675 679 678 681 686 673 659 650 649 651 641 635 636 644 654 669 682 697 713 740 768 786 776 743 722 723 730 745 760 779 790 816 851 889 905 911 893 848 826 805 780 752 720 704 690 676 653 627 607 592 583 566 553 551 562 577 594 597 592 565 534 518 515 518 525 543 573 597 622 646 671 700 743 778 804 819 833 842 855 858 875 894 906 893 866 858 881 907 923 924 925 930 950 983 1005 1015 1012 1010 1018 1026 1048 1068 1093 1119 1136 1124 1109 1099 1118 1154 1162 1145 1112 1093 1088 1072 1044 1016 972 932 897 865 836 805 788 779 760 744 718 701 688 680 674 664 661 664 649 638 655 673 682 678 682 680 675 636 600 587 576 574 602 618 619 601 607 631 639 659 680 703 719 722 737 755 786 814 837 860 890 924 948 966 971 980 979 1000 1018 1032 1049 1061 1081 1106 1129 1147 1166 1191 1186 1163 1135 1112 1079 1055 1049 1068 1080 1068 1025 979 950 956 989 1006 985 941 892 856 842 869 898 941 986 994 973 967 954 940 887 835 790 777 825 884 942 975 971 948 906 889 907 943 968 1008 1054 1067 1033 987 945 931 938 949 964 961 981 1012 1058 1118 1160 1176 1165 1157 1140 1120 1083 1039 1008 981 972 952 923 889 851 820 789 769 755 741 728 713 703 689 677 665 655 642 622 601 582 579 573 574 569 551 541 537 524 518 544 580 609 629 647 687 705 707 689 664 651 641 641 634 611 578 558 573 614 662 718 777 832 865 879 895 900 911 924 939 956 976 999 1016 1029 1040 1045 1059 1088 1094 1069 1025 990 962 927 881 852 854 845 839 843 834 811 771 741 735 730 723
533 558 551 529 507 491 480 469 470 480 491 503 504 502 502 492 477 467 451 454 450 455 443 431 440 465 480 471 449 427 406 397 397 410 428 437 441 435 426 410 403 409 409 409 409 409 409 409 409 414 429 447 457 469 474 490 504 513 516 509 492 469 444 427 430 430 430 443 452 456 457 456 456 456 457 458 469 476 479 472 454 441 449 478 495 506 517 535 559 580 596 608 612 617 627 635 650 656 654 641 625 631 652 671 686 698 710 727 752 767 773 790 828 862 884 891 875 851 823 804 789 764 745 728 720 706 691 674 667 652 635 606 580 573 595 631 671 698 723 745 773 787 792 786 782 774 783 799 816 813 796 778 774 768 753 725 698 677 658 635 623 612 600 594 590 583 592 595 599 604 607 598 580 561 557 572 586 608 650 689 712 724 735 755 770 785 786 772 744 713 684 658 659 660 649 621 594 572 565 562 565 560 540 509 489 476 475 480 476 477 495 509 521 535 541 542 556 579 600 625 647 662 676 679 676 669 695 726 760 757 738 698 665 640 617 594 570 565 572 574 579 577 571 563 551 536 519 508 524 552 590 626 646 660 673 688 694 703 707 695 677 669 674 676 667 655 651 649 655 669 687 706 730 752 763 783 774 740 717 709 719 731 739 740 759 782 813 845 867 884 884 879 857 835 808 768 750 742 722 696 668 646 637 621 611 598 573 554 547 549 559 554 538 520 515 515 516 522 531 553 582 605 619 630 653 689 729 763 782 790 802 815 818 840 864 878 893 896 882 863 884 917 940 953 957 962 973 981 1000 1004 998 1000 1010 1018 1031 1053 1087 1104 1107 1099 1096 1092 1110 1137 1141 1115 1083 1059 1046 1050 1039 1026 996 964 930 889 853 836 818 803 783 763 743 729 712 692 673 660 650 641 633 626 632 639 640 640 642 655 650 627 592 578 568 580 604 634 639 628 611 614 642 660 682 709 733 748 755 771 795 821 846 863 883 908 931 949 943 938 946 965 982 993 1005 1029 1057 1083 1111 1132 1163 1191 1184 1144 1104 1076 1044 1008 998 1009 1026 1020 1000 952 917 915 936 968 963 931 885 849 833 856 890 938 964 973 945 944 954 948 901 836 790 777 822 879 927 962 961 909 875 891 933 955 982 1002 1050 1068 1045 994 945 920 920 930 931 949 973 1002 1041 1100 1135 1136 1120 1115 1114 1102 1070 1027 975 940 922 912 893 865 835 802 770 750 734 723 706 690 675 661 646 631 623 615 610 600 606 609 590 573 572 562 565 551 533 515 540 573 603 631 658 681 682 672 636 612 594 588 580 572 559 556 568 605 643 680 719 768 806 842 865 881 883 877 884 905 930 960 995 1025 1046 1070 1091 1107 1116 1111 1083 1042 1008 975 937 911 908 895 886 884 874 851 816 791 789 781 775 763
525 546 549 532 512 498 484 465 450 447 455 462 472 484 488 476 459 444 421 419 423 432 429 426 434 455 470 463 444 416 397 397 405 422 439 452 463 468 456 439 425 412 409 409 409 409 409 409 409 409 412 418 441 454 476 494 503 508 498 486 472 452 430 426 436 439 430 433 441 436 436 438 443 447 451 455 459 468 468 462 448 441 448 472 502 514 533 549 570 589 606 619 633 640 648 661 654 647 634 612 608 630 652 677 696 714 726 745 769 788 800 808 821 863 895 910 893 861 842 828 808 783 764 747 739 724 709 696 689 673 649 620 594 570 576 611 646 680 709 736 761 768 760 747 741 749 768 795 822 829 817 802 798 786 766 735 706 686 666 650 637 623 616 609 601 588 576 576 579 581 577 574 561 557 573 589 601 614 643 686 727 749 767 771 768 772 777 773 748 714 682 654 639 655 654 637 612 601 592 593 595 580 553 528 505 487 474 469 471 488 505 513 517 517 522 540 555 577 607 629 645 653 652 637 627 654 679 698 719 741 741 712 686 657 634 610 588 565 550 541 541 542 536 526 524 522 514 508 528 570 610 635 646 653 653 659 666 680 689 689 676 680 691 694 690 680 670 664 662 673 692 712 739 753 764 780 772 740 711 699 709 715 716 733 746 760 778 797 827 864 885 887 873 853 812 796 789 770 746 708 686 680 669 659 647 627 593 567 553 541 537 531 515 511 516 515 520 528 537 562 589 616 637 650 656 670 699 724 737 753 768 780 804 829 842 860 890 901 893 881 882 910 941 960 973 973 975 974 976 967 969 978 989 998 1011 1037 1060 1075 1070 1073 1080 1079 1104 1119 1113 1085 1054 1040 1022 1012 1016 1015 994 969 942 915 897 875 852 825 801 781 771 764 747 720 696 683 670 661 649 633 619 618 618 617 610 617 623 611 587 568 568 583 606 634 647 654 640 621 627 657 683 711 739 761 774 785 797 816 836 846 856 873 886 895 895 895 908 927 940 958 986 1015 1046 1077 1106 1133 1159 1184 1178 1134 1094 1056 1021 978 944 952 973 986 969 934 893 875 890 917 931 917 883 839 821 844 887 917 927 912 892 892 901 896 861 811 771 762 827 873 878 932 922 872 867 916 972 992 1001 1024 1058 1079 1050 1005 955 903 897 895 920 948 974 1007 1046 1085 1107 1106 1088 1077 1089 1083 1068 1029 982 940 897 874 852 835 813 784 759 737 728 714 703 685 676 663 653 650 647 634 627 636 657 649 621 608 596 601 595 566 528 514 533 566 605 638 664 672 662 623 585 561 550 544 546 546 550 566 601 622 643 673 702 733 755 782 804 820 824 833 860 889 917 942 979 1014 1051 1083 1110 1124 1124 1113 1087 1055 1026 1003 986 976 964 951 943 929 899 862 842 844 833 815 800 780
515 539 547 536 521 507 492 477 457 443 428 427 433 445 456 445 422 397 393 393 393 407 413 423 432 445 451 452 438 412 397 400 407 424 442 463 495 505 491 473 462 458 446 431 423 422 418 413 409 409 409 414 421 447 471 486 494 490 480 462 449 431 425 426 443 445 432 430 430 430 432 433 435 440 444 442 445 448 452 450 444 441 448 473 499 523 540 555 575 596 612 632 646 659 662 664 656 635 607 593 611 635 656 677 695 720 741 762 784 808 819 828 839 861 902 917 909 883 864 849 832 804 781 767 754 740 726 713 700 679 654 632 605 578 568 589 626 670 703 739 751 749 730 720 725 740 758 783 821 835 833 817 810 801 778 744 717 697 680 670 660 644 637 630 621 608 594 578 570 561 563 557 557 573 588 606 624 636 652 682 726 762 785 778 755 739 751 754 747 713 676 647 625 641 652 651 637 626 624 627 617 596 566 541 515 491 473 469 478 495 506 504 506 515 524 539 562 580 596 609 604 602 604 600 606 630 650 666 701 736 747 732 703 669 642 617 594 579 564 547 529 518 515 508 510 514 511 508 545 580 599 613 609 608 617 626 635 644 650 659 659 666 678 689 695 705 694 688 685 685 693 708 734 750 762 772 764 733 707 687 694 700 716 724 737 743 755 774 803 831 851 853 842 821 800 794 786 778 755 723 714 711 715 695 670 633 605 583 570 554 537 523 510 510 510 512 515 528 544 566 591 625 649 646 644 646 653 671 692 715 737 761 791 805 825 848 871 892 901 904 895 905 940 958 967 958 950 937 932 930 942 951 963 972 991 1015 1028 1037 1043 1053 1061 1068 1084 1091 1082 1056 1029 1012 994 980 980 978 970 952 945 936 920 898 870 842 814 808 807 798 774 740 721 708 703 696 683 662 643 632 621 616 607 594 595 597 581 566 570 582 599 621 650 664 663 647 629 641 674 707 733 753 772 787 797 807 808 814 816 828 838 851 851 864 877 900 926 952 981 1010 1044 1073 1103 1128 1153 1174 1164 1117 1079 1051 1010 960 922 907 918 929 931 906 886 862 853 867 887 886 869 834 805 830 850 869 853 837 822 818 818 810 773 748 732 767 830 884 864 897 867 849 872 932 990 1021 1041 1054 1062 1066 1040 997 942 888 859 891 939 965 993 1025 1059 1080 1091 1083 1063 1054 1065 1076 1080 1047 996 952 903 860 841 813 794 773 760 762 757 737 723 703 693 690 693 687 671 646 647 675 691 672 638 631 643 638 616 571 528 511 526 559 593 631 657 653 626 577 541 534 539 550 560 563 570 579 600 622 632 648 669 688 710 733 757 773 799 833 867 900 934 966 999 1024 1054 1084 1098 1096 1085 1070 1058 1037 1026 1024 1020 994 971 957 954 943 913 903 881 860 838 806 783 759
509 523 535 527 526 520 505 490 474 452 445 431 420 419 419 414 394 393 400 399 394 393 408 417 427 438 441 439 428 414 398 397 406 421 439 479 517 530 514 506 511 500 483 465 453 445 438 429 419 410 409 413 421 434 450 461 463 462 452 436 425 425 425 430 446 452 446 433 437 446 447 439 433 433 434 436 438 441 442 441 440 445 468 486 506 530 548 567 577 596 619 637 652 669 665 652 632 607 586 592 612 637 660 681 694 716 747 774 795 815 831 840 854 875 901 925 924 904 885 867 846 825 802 783 768 753 736 724 704 677 657 638 610 585 568 569 611 654 702 731 731 713 697 703 720 735 754 775 812 839 842 821 806 793 769 749 732 712 700 693 677 662 659 651 643 631 618 605 588 569 557 557 566 577 593 613 631 649 670 693 723 759 780 771 729 693 701 724 729 714 674 637 616 631 659 671 668 656 651 645 630 601 572 546 515 487 469 469 486 494 495 500 513 526 539 558 567 571 573 565 560 564 564 579 597 615 633 658 690 723 748 738 705 672 642 615 591 575 562 545 540 525 508 508 508 508 508 527 547 570 572 571 577 588 597 606 613 619 628 628 633 641 655 676 704 717 726 716 712 714 717 720 731 753 762 760 746 718 698 682 677 692 705 718 733 746 759 772 788 801 807 797 776 764 749 745 752 757 755 746 740 741 735 712 670 643 621 612 597 582 563 545 539 530 519 509 507 520 538 556 581 609 619 616 596 594 617 648 674 697 719 737 762 781 801 833 858 893 917 917 912 924 927 935 931 913 900 893 888 891 897 912 926 947 973 992 1008 1011 1024 1034 1037 1046 1061 1066 1056 1033 1011 984 962 945 944 940 932 923 924 923 904 882 854 829 811 812 822 818 799 761 745 742 737 731 716 700 682 665 657 650 632 608 586 581 580 566 564 574 591 609 632 658 669 671 650 635 659 690 715 734 750 762 773 788 785 781 781 790 802 810 822 840 864 894 923 954 982 1010 1039 1071 1103 1128 1147 1153 1140 1094 1064 1036 994 945 908 886 884 883 875 865 853 835 827 826 833 835 829 805 789 796 813 793 778 765 760 757 757 747 738 722 731 764 819 872 893 842 836 833 874 930 989 1035 1066 1081 1060 1048 1007 964 900 850 844 902 968 1005 1030 1055 1082 1096 1085 1062 1046 1039 1048 1068 1078 1054 1005 962 909 860 832 818 814 808 804 811 796 766 739 718 723 732 720 706 674 658 675 702 707 684 666 675 669 650 613 570 536 511 516 547 583 619 645 635 591 542 530 534 543 549 555 563 570 579 595 614 634 646 669 685 701 716 732 760 791 826 866 901 940 979 1006 1029 1060 1089 1084 1066 1039 1023 1003 988 994 1003 1001 983 942 916 911 914 918 920 906 870 829 786 746 712
499 508 515 522 532 534 520 503 483 469 459 450 441 421 411 396 393 396 408 411 397 393 399 404 409 417 418 416 416 410 399 397 397 416 443 478 517 530 536 544 545 532 504 492 484 470 462 453 434 417 409 414 420 429 438 439 432 427 428 425 425 425 438 454 467 473 466 463 464 466 459 450 441 444 435 434 435 436 436 437 445 465 496 515 528 544 563 577 589 602 619 640 660 672 667 641 616 588 578 589 612 640 665 686 699 711 733 761 785 802 819 840 859 881 908 918 920 908 900 886 867 847 821 800 783 766 747 726 699 675 657 640 615 590 561 565 594 641 691 703 695 677 681 711 730 746 760 779 806 836 838 814 794 775 757 744 736 732 726 712 698 689 675 670 661 652 643 630 611 586 559 557 575 587 597 607 637 664 689 715 740 755 756 740 702 662 653 672 695 692 664 625 608 632 677 696 698 687 672 654 628 598 567 538 509 481 469 475 487 488 485 493 508 527 549 566 561 557 535 536 548 558 576 593 609 621 633 659 677 692 709 704 689 659 628 602 586 568 555 541 538 529 511 508 514 523 533 534 548 555 558 573 596 609 604 605 608 608 613 619 629 645 670 692 710 732 745 743 741 736 738 737 746 757 762 750 723 699 680 670 673 683 698 720 745 752 755 769 783 779 772 757 742 723 708 703 720 742 758 748 743 733 721 697 675 665 650 639 625 608 594 578 563 554 542 528 507 507 522 537 552 567 575 561 560 578 616 647 687 714 721 731 739 756 784 815 846 879 898 905 918 938 926 906 877 862 854 853 850 845 856 880 900 928 952 969 979 986 1006 1014 1011 1015 1027 1040 1037 1019 992 967 939 914 906 897 888 882 892 879 869 845 819 798 790 793 808 817 805 780 769 770 764 760 750 732 709 690 672 663 643 620 597 572 572 566 564 570 587 604 622 646 674 681 671 656 650 664 682 697 713 729 753 771 769 755 756 768 782 798 821 844 867 896 925 954 983 1010 1039 1071 1104 1129 1137 1128 1101 1060 1026 994 960 926 897 871 864 859 846 832 821 812 808 802 800 792 786 776 776 773 768 756 750 750 750 750 750 746 737 716 716 742 787 836 849 827 808 822 869 926 986 1039 1088 1087 1052 996 953 903 851 824 847 913 972 1009 1035 1071 1104 1100 1086 1057 1038 1024 1036 1054 1069 1053 1006 955 904 859 850 860 847 841 849 834 812 779 752 758 771 757 732 697 678 686 702 726 728 713 708 696 677 639 598 561 528 511 510 549 582 619 635 619 564 537 524 526 536 542 554 571 593 612 617 621 632 666 690 719 732 740 748 762 787 819 856 894 934 970 996 1027 1055 1069 1060 1026 995 976 961 948 948 962 972 955 912 876 858 861 873 884 879 847 810 779 735 693
482 487 496 516 537 542 534 516 498 484 477 468 459 436 409 395 393 401 420 424 413 397 393 393 396 396 396 397 402 402 401 396 399 417 443 477 512 535 560 577 567 548 529 523 514 504 494 477 456 433 417 409 413 416 422 418 420 425 425 425 427 446 466 478 490 494 495 494 494 489 477 459 462 463 462 450 445 446 447 452 461 483 515 540 558 565 578 591 605 612 627 648 661 666 656 634 604 582 574 587 612 636 665 679 691 696 706 727 746 768 797 825 849 872 890 894 890 894 900 899 886 863 845 822 797 772 748 726 704 677 654 633 612 595 576 553 568 628 663 665 649 644 684 729 753 760 772 790 814 829 828 802 780 760 744 737 740 745 752 742 730 714 702 690 679 672 661 645 622 593 567 555 576 600 615 622 637 670 705 730 758 758 743 715 679 656 625 621 641 652 636 604 600 637 683 714 722 716 691 661 630 597 566 533 504 478 469 472 476 473 469 479 497 516 535 542 531 517 531 557 570 570 575 587 604 611 619 635 644 651 674 690 684 654 628 606 582 564 547 536 532 526 516 506 523 541 544 548 553 563 574 589 614 629 640 639 634 624 617 633 645 657 690 723 733 735 750 758 769 749 739 741 757 755 753 731 707 686 667 663 666 678 701 720 735 738 745 773 776 759 744 739 731 706 691 682 697 715 724 723 713 702 686 674 672 677 665 653 643 637 627 602 582 572 571 556 537 509 503 517 532 538 537 536 552 577 604 652 691 725 748 757 757 759 773 798 829 853 871 894 920 925 908 870 838 816 814 813 810 810 832 857 879 902 927 932 947 967 979 980 974 981 994 1008 1011 998 973 948 922 887 866 860 849 845 845 846 834 819 790 775 764 762 778 796 799 783 762 754 753 753 749 739 725 702 670 653 640 625 603 576 560 562 571 590 605 616 627 644 673 693 700 689 671 659 663 669 678 700 723 740 739 737 747 775 796 816 841 855 873 902 932 959 985 1010 1035 1067 1098 1120 1126 1105 1067 1031 990 960 934 910 886 861 851 844 837 828 826 828 816 807 799 799 800 802 798 785 770 765 770 768 769 767 765 759 747 726 703 715 746 789 820 825 793 817 866 926 980 1035 1069 1067 1022 958 906 856 815 813 859 913 947 979 1019 1076 1119 1117 1085 1047 1023 1013 1034 1052 1065 1059 1011 956 899 890 897 883 878 882 872 852 816 792 800 814 797 770 724 705 704 716 735 756 761 762 743 717 674 629 584 546 514 507 518 549 590 608 608 582 543 531 528 523 527 544 571 606 639 662 667 659 650 669 718 756 773 782 785 797 798 823 854 890 927 964 993 1026 1053 1047 1016 982 950 930 915 905 911 928 948 932 886 841 806 800 809 825 824 811 789 761 718 680
463 474 489 508 530 542 541 526 512 504 496 488 468 442 408 388 393 408 428 433 424 419 406 404 401 397 396 396 396 396 398 396 399 420 444 477 510 548 586 603 590 564 557 554 546 534 523 508 483 461 442 422 410 413 412 416 423 428 440 445 455 474 492 503 511 517 519 522 516 506 490 473 479 484 480 473 467 466 468 471 476 492 522 555 574 590 599 610 621 632 642 659 659 653 637 619 599 576 570 590 616 637 649 660 656 660 674 694 719 745 774 804 823 833 839 840 848 867 891 896 896 893 873 846 809 781 757 734 705 684 665 649 639 616 589 559 550 587 615 612 610 631 686 735 763 783 795 804 821 827 815 787 766 746 732 727 735 757 770 768 759 740 723 704 686 676 659 639 614 586 557 552 578 610 629 638 652 671 703 737 765 759 731 698 671 642 619 598 596 608 600 585 590 639 688 728 746 736 708 672 638 602 565 533 503 478 470 469 469 467 467 467 481 502 516 520 507 513 553 580 586 570 563 561 568 569 575 588 607 628 658 668 662 633 620 605 584 555 539 527 519 515 507 505 523 535 538 556 583 597 604 616 635 655 671 678 666 649 636 649 670 680 697 741 755 762 775 776 776 751 730 737 747 749 742 723 697 680 664 651 662 680 694 708 708 719 743 753 755 730 715 718 721 697 670 669 692 702 690 678 672 663 652 642 656 665 651 638 633 630 615 599 593 586 579 565 551 534 511 503 512 518 520 538 559 583 611 643 685 727 763 782 778 774 779 793 813 842 862 892 914 912 877 837 811 788 773 771 771 782 816 841 857 872 882 898 919 941 942 935 929 945 965 987 987 977 959 935 908 875 839 820 814 807 803 813 819 811 807 780 761 743 741 749 755 744 728 713 703 708 707 710 704 691 677 661 644 626 603 579 559 564 580 598 612 624 632 646 662 690 709 714 710 690 679 681 687 690 702 711 718 731 748 772 798 823 841 855 872 897 926 952 986 1014 1038 1063 1090 1108 1107 1090 1053 1011 989 960 924 898 883 879 875 868 861 855 849 849 845 836 837 847 847 846 841 825 791 801 808 807 804 798 795 785 765 741 719 702 713 745 785 790 786 809 854 907 953 988 1012 1010 984 928 869 823 793 807 856 894 915 939 993 1063 1099 1094 1068 1025 996 1015 1052 1075 1081 1071 1028 970 952 945 929 920 916 914 890 854 839 847 853 845 815 761 730 729 738 756 779 785 783 775 755 712 664 613 572 531 508 505 525 563 585 593 575 543 520 517 519 525 538 556 587 630 675 710 717 698 679 679 723 777 809 823 828 835 850 851 873 907 941 977 1009 1041 1058 1045 998 955 915 885 877 862 872 908 934 913 868 819 778 746 745 754 761 754 742 728 696 655
454 465 475 492 513 530 539 524 516 514 512 496 471 433 400 387 394 412 426 433 434 435 435 434 433 431 419 405 396 396 396 397 405 422 447 480 517 555 603 618 592 571 568 559 559 558 553 533 509 491 469 444 420 410 415 421 426 444 458 468 480 502 519 527 534 539 543 541 534 522 505 497 505 505 503 494 487 487 491 495 501 510 528 553 584 605 617 631 642 650 659 668 665 644 618 598 582 561 566 589 618 628 632 622 627 644 662 683 703 729 756 771 784 789 783 792 806 834 858 882 895 901 895 866 824 791 765 743 720 705 690 676 659 633 598 570 544 556 570 577 588 620 671 716 759 782 796 810 827 828 811 785 761 740 720 715 724 749 772 783 778 759 736 711 686 667 644 621 597 572 546 550 571 596 617 632 648 670 697 716 742 746 724 691 666 645 620 595 578 574 573 564 586 637 686 718 743 730 705 681 648 613 582 549 518 493 477 468 467 468 467 464 473 494 508 499 496 529 558 568 568 544 532 537 538 543 548 571 593 635 650 646 624 603 601 587 561 537 522 514 507 504 500 504 523 540 567 580 605 621 639 649 666 695 712 710 690 665 648 667 684 707 723 751 778 792 784 775 762 729 715 720 740 755 747 720 696 679 664 650 661 670 679 680 695 718 736 736 719 697 691 706 711 685 655 660 692 697 674 643 639 641 632 621 630 636 622 604 600 598 596 600 595 576 561 548 542 528 516 505 502 508 518 542 563 590 614 647 682 715 743 758 759 763 778 793 811 837 869 885 897 883 853 821 787 765 745 740 738 768 795 816 823 830 847 871 893 906 904 883 881 906 933 952 965 962 951 934 911 875 842 804 786 772 775 781 801 808 811 799 773 735 711 698 695 690 680 667 660 664 664 669 671 678 673 654 639 619 600 576 562 559 575 582 589 597 615 635 652 669 692 711 714 713 714 712 713 717 718 725 732 734 742 763 781 801 815 838 862 892 919 963 997 1023 1045 1067 1091 1109 1109 1088 1048 1013 989 961 925 907 905 907 904 898 895 877 866 873 879 872 875 883 895 893 871 823 807 824 840 851 847 839 828 814 795 770 746 718 700 710 739 762 770 798 828 864 894 911 937 953 942 903 849 801 767 798 831 858 877 914 975 1040 1062 1055 1015 986 982 1028 1083 1118 1111 1089 1046 1009 995 988 969 953 942 933 908 878 881 899 884 856 806 765 754 767 785 785 786 783 767 738 713 678 636 598 557 518 502 511 539 565 570 567 535 516 514 523 531 546 555 572 595 640 691 735 755 733 702 697 726 775 823 849 870 886 895 898 909 938 975 1004 1036 1057 1059 1034 990 948 903 861 839 838 844 882 902 889 857 811 763 721 694 693 698 704 707 698 672 629
450 454 459 469 485 503 513 506 507 521 522 499 465 427 399 387 395 408 421 428 435 438 442 440 445 447 444 437 430 416 412 413 420 434 460 494 526 565 602 613 589 565 552 557 568 577 574 551 528 512 490 460 438 423 419 425 440 459 481 492 508 531 547 551 551 557 563 561 553 540 527 523 530 532 527 517 512 510 515 520 527 536 546 562 586 613 631 647 660 664 668 674 664 647 619 591 567 551 562 584 603 605 599 606 617 637 657 679 702 726 743 750 747 740 735 749 778 802 824 850 877 892 894 874 835 803 784 761 741 724 710 699 676 640 605 574 550 542 561 581 596 604 647 687 721 752 774 797 826 830 808 780 755 731 709 696 708 736 772 787 790 771 743 712 685 661 640 617 595 574 550 543 556 573 586 607 628 657 679 702 726 738 716 686 660 636 615 593 575 557 552 558 586 628 668 688 695 697 711 707 671 637 605 571 541 515 493 481 480 472 464 463 470 482 488 487 498 520 544 538 521 509 511 520 530 541 564 587 616 634 644 623 593 568 556 550 530 517 507 500 500 500 503 524 557 582 600 609 616 625 645 656 678 705 732 735 707 675 671 686 715 739 753 781 802 796 780 754 727 700 698 714 752 761 746 726 705 684 666 650 659 659 657 671 692 709 720 706 683 670 672 699 702 668 645 656 681 690 670 641 623 618 607 598 599 605 601 592 588 584 584 586 581 558 538 522 512 510 505 501 499 507 526 552 573 598 631 658 673 686 700 695 711 740 770 792 814 839 850 862 854 845 828 808 781 753 732 714 725 749 772 782 785 799 818 846 866 867 848 832 844 872 899 922 937 942 940 940 929 891 851 822 794 764 740 748 766 783 797 804 788 743 693 653 639 634 634 628 624 620 622 625 635 644 641 627 612 602 588 569 559 559 566 578 586 586 595 607 626 640 656 679 699 712 722 730 744 753 751 754 756 757 755 759 771 783 812 836 862 892 922 961 998 1028 1061 1088 1109 1130 1128 1104 1056 1026 993 958 933 924 927 932 940 936 921 901 883 896 902 902 902 916 935 916 871 821 832 856 877 890 895 880 867 849 829 808 783 748 715 694 703 727 751 773 792 810 825 842 869 893 894 876 829 783 755 776 805 826 855 904 958 1017 1031 1008 975 960 982 1035 1093 1137 1133 1115 1085 1041 1006 980 970 964 946 928 912 920 927 925 898 848 802 791 795 815 810 794 775 744 719 687 659 633 602 571 537 504 502 520 532 556 552 534 514 513 526 548 562 580 593 592 608 647 695 749 771 755 737 725 730 769 811 856 892 923 944 952 954 973 1007 1043 1062 1063 1054 1020 977 938 903 862 820 803 824 851 866 857 826 795 769 718 679 648 639 649 660 666 644 604
443 445 450 454 459 473 479 483 498 517 514 493 466 433 400 387 396 405 413 419 423 427 427 435 446 458 463 466 464 456 449 445 449 463 487 516 541 567 590 591 562 549 551 571 584 589 583 563 547 530 505 478 455 445 445 444 455 479 506 520 533 558 574 575 571 572 577 575 568 556 548 546 552 553 550 544 537 536 542 546 552 561 568 574 591 615 637 657 655 657 655 662 665 648 617 584 557 543 553 564 575 575 578 588 610 630 653 676 700 726 733 729 713 700 714 739 762 780 802 823 843 868 877 866 830 805 794 781 760 745 734 715 681 643 607 579 556 542 562 591 615 623 635 669 695 720 759 792 828 831 807 778 749 723 698 676 691 717 757 789 794 779 753 719 687 667 646 626 600 573 549 543 567 588 608 614 626 643 667 692 720 724 705 678 653 626 607 589 572 556 538 555 581 607 633 636 651 689 721 720 690 661 629 591 558 532 511 498 493 480 464 462 465 471 475 478 485 501 509 505 496 508 528 528 535 553 576 600 630 645 640 608 582 559 540 524 514 501 499 502 503 505 521 544 576 598 605 611 609 610 623 644 665 696 727 732 710 693 694 711 740 768 795 806 802 788 750 719 693 673 678 719 742 745 730 708 696 681 664 651 650 657 668 676 688 695 689 677 663 652 667 684 683 652 636 647 664 671 671 657 631 612 602 588 575 577 581 582 587 585 578 576 565 553 542 527 508 499 499 499 501 514 540 570 592 601 621 645 654 645 645 660 690 731 760 782 802 819 820 812 800 792 793 793 787 760 729 701 702 719 735 744 747 765 799 819 829 819 791 790 812 845 876 912 931 926 926 937 926 906 878 850 814 776 739 722 726 747 769 788 779 738 695 654 606 591 588 595 588 585 586 594 603 615 608 598 584 574 563 559 560 576 584 593 599 600 590 594 601 617 628 647 664 688 707 728 756 774 785 788 783 782 782 783 795 801 813 837 864 896 929 963 997 1035 1078 1106 1127 1149 1156 1120 1072 1040 1009 975 950 947 961 974 983 975 951 918 902 910 920 927 928 943 956 925 855 844 861 890 918 933 940 929 908 888 859 829 798 763 730 704 686 697 715 731 739 750 765 780 799 831 853 847 810 766 741 754 788 819 865 909 960 990 994 966 936 936 975 1017 1067 1090 1105 1095 1085 1060 1014 974 942 928 921 919 936 959 950 932 889 841 819 821 844 835 816 779 744 705 673 647 619 595 574 552 523 501 504 512 522 527 525 511 507 524 545 565 592 618 630 633 638 661 707 763 790 798 771 756 754 776 808 855 904 943 979 992 1004 1020 1049 1067 1070 1061 1029 996 960 923 887 854 815 778 782 801 816 802 787 777 763 738 684 643 613 592 604 611 601 576
438 440 442 444 449 454 461 472 486 499 499 485 463 439 407 387 392 401 407 411 415 417 420 428 442 459 477 493 501 498 490 484 481 492 516 541 566 577 580 565 545 542 561 586 601 603 595 578 565 545 519 493 474 473 470 465 474 495 525 543 559 587 602 600 594 590 591 591 585 575 569 564 560 566 570 567 563 563 564 571 573 572 572 577 594 616 636 644 641 627 631 641 643 630 603 571 544 538 545 548 554 559 567 578 596 617 642 666 692 720 720 706 689 690 713 736 753 766 779 798 819 837 844 838 816 793 783 774 771 771 754 722 681 637 603 572 548 542 567 601 628 645 657 668 690 717 747 793 827 824 798 767 741 716 690 663 667 705 743 776 787 773 745 718 696 674 652 630 606 574 544 543 570 606 635 649 651 655 672 696 714 714 691 662 635 614 595 579 564 548 536 547 566 582 589 607 638 684 723 731 704 674 637 594 561 532 512 498 489 477 468 460 470 483 486 484 479 481 492 491 506 534 550 552 548 556 579 609 639 652 633 604 580 553 528 515 501 499 500 504 514 527 537 550 574 588 587 580 580 598 611 623 648 673 701 704 703 713 720 736 763 793 806 805 794 756 717 690 660 645 674 715 735 726 698 680 671 659 647 640 656 671 679 690 693 691 677 663 652 649 661 669 661 638 624 634 648 668 681 661 643 632 619 608 592 572 566 573 584 588 581 570 572 561 549 539 523 503 499 499 512 531 552 573 588 593 599 605 604 603 615 648 684 725 749 759 769 780 782 775 758 752 765 786 789 778 744 709 684 691 701 708 727 754 791 801 795 769 754 760 798 834 870 906 930 934 915 912 917 909 891 863 831 792 751 718 703 708 733 758 762 741 708 663 618 587 564 555 558 555 561 570 578 589 590 580 566 554 553 561 581 599 612 614 620 619 610 604 600 600 613 635 648 664 689 721 752 773 787 789 799 808 810 810 818 830 848 863 881 905 934 959 996 1039 1079 1112 1134 1160 1164 1129 1088 1062 1031 1002 978 973 986 1003 1012 1000 968 938 924 929 942 956 964 974 962 919 868 867 891 921 954 981 997 983 937 907 868 835 799 767 740 722 698 678 682 690 690 699 714 732 750 775 805 807 785 742 715 743 783 827 881 923 967 980 964 924 898 912 943 983 1010 1029 1035 1065 1080 1077 1028 976 928 910 900 914 958 983 977 925 881 844 850 868 860 836 795 749 717 686 655 628 605 583 566 547 531 507 497 498 499 506 504 504 524 548 571 592 622 656 678 687 679 694 733 777 824 833 821 795 790 802 826 859 899 949 984 1011 1034 1057 1083 1081 1064 1030 997 965 929 893 861 832 796 765 745 738 747 742 735 740 748 725 702 657 614 579 551 561 562 544
435 436 436 439 441 445 454 462 471 480 478 466 449 428 403 387 387 397 400 404 407 410 414 419 428 447 472 494 514 524 524 518 516 526 545 569 589 592 576 553 533 534 570 601 620 625 614 600 583 561 532 506 498 500 494 488 498 515 542 565 589 610 626 623 617 608 606 605 600 591 581 570 559 570 582 587 589 586 587 588 582 574 568 570 590 615 629 633 616 599 611 621 617 601 579 549 533 541 548 555 561 568 580 589 595 607 629 655 682 703 703 681 669 690 717 733 739 745 756 776 792 810 815 810 791 767 749 748 762 761 755 719 671 629 595 567 542 545 570 599 637 659 678 691 705 725 754 793 815 810 783 758 734 709 680 653 646 679 722 746 749 739 722 700 688 663 640 617 589 556 535 539 572 619 661 681 685 689 696 710 715 707 682 654 627 607 585 564 547 534 532 537 550 553 574 603 642 674 699 708 703 666 628 588 544 514 491 478 474 471 466 460 479 499 507 502 494 487 485 495 510 537 561 571 569 568 581 611 643 647 621 597 572 546 522 504 496 499 503 514 525 533 543 554 565 570 564 558 577 604 625 633 634 645 654 673 698 713 733 760 787 789 789 774 747 722 691 661 638 636 668 708 730 717 685 659 646 638 632 647 673 690 693 699 703 697 682 670 654 638 647 651 639 624 611 628 644 652 660 648 639 647 643 630 614 600 577 566 572 583 582 577 581 562 535 523 515 504 499 508 519 528 544 558 559 560 564 569 578 592 612 635 676 707 726 728 743 748 748 736 718 726 751 778 797 790 756 722 693 672 682 689 713 746 775 777 755 734 731 757 792 828 864 898 927 933 914 890 878 876 867 853 819 789 756 724 695 684 697 723 738 731 709 675 629 594 559 540 540 540 542 551 561 564 568 561 554 548 566 583 594 620 636 642 645 643 635 627 624 615 611 621 639 658 684 707 732 745 751 774 802 825 836 841 844 853 874 896 917 934 951 973 998 1032 1068 1101 1129 1155 1166 1144 1110 1084 1063 1032 1003 990 1004 1022 1033 1021 988 959 946 952 964 987 1002 1007 979 911 883 896 921 955 995 1036 1027 996 948 902 860 821 796 782 776 756 718 693 671 665 665 663 672 685 704 726 754 763 746 710 698 732 786 840 884 916 955 959 925 877 850 865 901 938 960 971 978 1018 1062 1069 1026 973 916 885 882 918 969 1005 991 937 881 881 899 892 874 833 772 751 732 718 704 678 652 624 597 563 534 506 498 492 493 495 504 534 562 586 610 629 653 685 715 727 733 736 747 775 813 833 841 838 821 837 869 893 920 956 991 1020 1049 1078 1087 1078 1041 1006 972 939 903 867 834 805 780 756 731 716 698 689 679 681 697 704 698 672 639 596 552 515 521 526
432 432 434 436 440 439 449 454 463 473 471 453 433 416 401 387 388 390 395 401 403 405 407 414 420 430 446 474 507 524 539 550 552 553 565 588 604 597 573 541 518 531 569 601 628 637 629 619 599 573 546 528 533 520 514 514 522 541 570 594 606 614 623 624 625 628 627 622 611 597 583 567 554 566 584 596 608 610 607 599 586 568 557 562 585 607 619 617 599 578 582 590 589 575 552 536 533 549 564 575 578 586 596 605 612 618 627 650 673 693 690 665 662 683 702 714 711 720 734 751 769 784 792 789 771 747 720 705 704 708 707 683 656 621 588 562 542 545 575 601 632 664 687 706 723 743 766 795 806 793 769 746 722 696 668 641 626 653 694 718 720 706 685 665 655 634 610 589 566 541 526 535 578 624 662 688 699 712 727 730 722 702 673 648 624 604 581 564 553 536 518 523 534 548 573 603 631 650 662 676 675 642 603 561 516 486 469 465 464 463 460 473 508 524 529 524 517 508 496 489 503 529 547 565 561 566 585 615 646 643 612 588 563 537 509 496 498 499 506 515 526 533 541 551 557 560 551 554 577 606 618 623 614 610 618 639 666 698 733 759 787 787 761 731 708 686 664 640 621 638 672 709 727 712 673 642 629 621 637 654 681 701 706 716 710 703 691 679 662 638 624 625 623 611 614 625 638 635 626 624 640 651 642 636 634 619 590 568 566 567 566 573 571 547 519 496 496 498 501 500 511 517 527 540 548 548 554 564 579 589 610 639 671 694 701 713 723 726 713 695 697 718 740 759 783 786 771 740 711 676 661 681 704 734 750 743 720 704 721 757 792 831 865 895 921 925 909 875 841 828 824 814 802 773 743 715 694 674 671 686 702 706 700 679 641 610 580 546 540 540 540 540 543 547 547 550 548 553 578 602 606 625 651 666 661 658 654 652 649 645 630 619 633 655 671 685 694 706 725 756 787 814 826 839 858 875 889 916 934 944 963 983 1004 1027 1058 1088 1118 1151 1167 1156 1128 1105 1078 1048 1017 1015 1028 1048 1060 1050 1015 984 972 974 979 1007 1028 1027 986 920 909 927 957 986 1042 1058 1037 981 922 882 845 823 819 823 813 783 737 702 694 694 678 667 658 656 657 675 699 716 706 685 679 729 787 824 852 881 903 905 872 830 796 819 861 892 914 917 937 986 1030 1043 1005 957 903 858 863 911 963 1001 989 944 920 926 916 895 853 807 779 758 742 732 714 701 675 650 619 575 531 497 490 496 507 526 542 556 577 596 617 637 659 687 714 732 742 746 744 759 785 815 840 841 851 879 909 938 962 982 1011 1037 1053 1063 1061 1038 1009 988 966 932 900 875 857 835 808 785 762 738 720 696 678 657 646 657 672 664 646 616 572 526 501 489
429 429 428 433 438 449 454 461 465 475 470 449 423 409 401 387 387 388 399 407 415 416 413 411 414 422 433 452 482 518 545 558 558 555 565 591 605 592 556 522 499 525 560 591 607 617 620 620 612 590 570 568 555 546 537 544 552 571 587 614 616 608 606 612 622 635 642 633 618 599 578 561 549 561 583 604 625 623 616 605 586 565 545 555 577 597 603 598 582 562 561 559 558 544 535 533 540 562 581 594 600 606 613 623 633 635 640 653 677 687 678 656 658 669 680 688 697 708 721 732 744 762 783 786 766 739 710 682 660 649 649 644 632 617 589 562 542 546 568 595 625 657 687 716 739 759 781 799 799 777 752 728 703 682 656 631 614 632 674 705 707 693 673 653 633 616 596 575 554 528 523 544 584 630 660 681 706 728 751 741 725 698 675 658 638 616 595 582 566 543 524 512 524 541 565 586 604 608 630 648 646 614 580 537 492 463 458 456 457 459 473 502 537 558 557 549 538 524 508 496 496 515 529 533 544 559 588 631 652 642 609 584 559 531 501 496 497 500 506 513 523 532 544 554 551 545 546 562 582 601 604 595 584 584 601 615 645 679 713 747 761 760 732 703 672 656 637 619 613 640 677 711 714 695 656 621 607 621 640 652 675 699 711 733 736 725 705 684 662 643 627 620 611 598 601 615 623 617 608 614 633 638 634 637 637 622 598 584 578 566 563 552 546 533 512 496 496 500 500 500 514 531 538 546 554 576 584 577 585 599 620 637 666 680 689 696 701 690 671 665 681 700 718 739 766 789 788 754 725 691 660 665 688 712 717 711 694 689 724 756 794 828 861 890 914 916 893 858 815 787 793 797 792 766 735 714 693 673 659 659 669 676 682 671 655 638 605 568 541 540 545 546 540 543 546 548 557 578 590 609 626 631 660 679 682 675 672 679 676 670 655 634 625 638 650 656 667 681 713 742 764 775 798 828 858 880 882 893 907 915 936 964 989 1014 1042 1075 1106 1135 1155 1150 1141 1119 1094 1057 1041 1042 1056 1075 1086 1074 1033 1014 1004 1003 1005 1022 1049 1041 982 936 935 958 986 1029 1079 1087 1038 963 912 873 849 848 858 862 840 790 745 728 732 725 713 700 687 669 652 642 650 666 666 659 675 727 779 802 813 832 862 864 832 781 747 775 815 846 857 873 919 970 996 996 964 922 870 837 831 870 926 969 970 965 961 939 918 875 827 787 759 730 703 683 669 658 645 626 598 558 513 489 498 514 530 538 543 558 571 586 601 620 641 660 676 692 701 703 708 727 754 783 809 842 869 905 938 963 984 1003 1022 1035 1041 1039 1013 988 969 963 946 935 929 921 897 873 845 816 793 774 762 739 704 666 638 620 617 623 625 605 570 542 513 484
422 426 435 442 449 452 455 458 464 471 465 448 423 407 399 394 386 386 395 407 422 428 424 421 418 416 428 445 466 502 519 527 520 525 551 584 591 571 535 506 495 507 531 551 565 586 608 620 626 616 604 596 584 570 567 575 587 583 589 611 609 594 581 589 609 629 636 637 623 602 580 556 544 556 576 602 623 620 606 594 582 562 546 545 568 582 584 575 561 542 538 537 531 529 528 540 549 568 592 607 624 627 631 642 651 656 658 665 683 689 678 650 642 656 665 675 683 692 699 713 730 752 781 787 769 741 705 678 652 633 612 605 615 604 586 559 540 545 567 582 617 652 686 720 749 771 798 804 791 764 738 711 686 667 643 622 606 619 653 691 697 688 669 646 622 604 585 566 541 523 526 561 601 642 675 702 721 748 757 751 727 704 688 669 648 628 611 597 577 553 530 513 507 527 548 555 566 589 621 640 628 599 565 524 483 460 454 460 468 477 492 517 553 574 583 572 552 532 516 504 498 509 520 527 540 563 595 634 658 644 618 590 561 530 504 496 496 499 503 510 521 533 546 553 548 539 553 571 579 586 579 570 568 591 620 637 658 684 719 752 752 733 704 684 661 630 609 601 605 640 682 710 703 669 626 597 594 625 645 662 675 694 722 752 756 738 713 684 662 638 634 635 627 610 596 596 600 601 601 618 630 633 624 627 637 630 623 623 616 595 580 567 552 536 516 497 496 498 510 529 557 577 579 582 586 605 614 628 624 619 626 642 664 679 682 678 667 660 652 649 661 676 695 721 755 776 771 758 732 697 667 656 671 686 690 676 671 694 722 748 780 819 853 884 907 907 875 836 796 762 762 780 777 773 747 719 697 681 660 644 643 645 651 658 657 641 610 584 554 540 537 551 564 557 559 570 582 600 617 635 648 653 667 689 700 697 696 700 704 700 679 651 627 630 637 647 663 675 695 718 731 747 775 802 821 835 835 840 847 870 897 926 964 993 1024 1057 1086 1106 1118 1128 1131 1128 1101 1081 1070 1071 1082 1100 1108 1095 1060 1045 1031 1031 1037 1055 1064 1045 993 969 974 993 1030 1075 1101 1093 1024 964 914 878 878 886 889 882 855 795 765 767 772 767 756 743 733 712 685 658 641 638 639 649 673 708 753 761 770 791 828 830 803 747 713 731 769 798 818 848 902 951 966 952 911 876 835 806 808 836 885 927 968 992 993 959 908 857 808 765 723 692 661 635 614 602 586 570 554 531 508 488 493 515 524 525 531 552 570 588 600 614 625 639 648 651 658 666 679 701 723 751 792 830 871 903 923 943 957 978 1001 1010 1000 982 959 934 913 909 920 926 933 920 906 899 873 843 825 818 800 775 743 706 662 618 593 578 569 561 551 533 517 485
426 433 442 447 448 450 448 450 450 454 453 442 415 403 401 398 391 385 391 401 417 426 430 424 420 414 423 438 461 490 504 494 486 509 544 570 575 550 518 494 489 492 509 525 551 575 601 629 643 648 640 624 610 598 602 608 614 601 588 596 596 578 560 570 587 614 633 644 629 606 582 560 540 539 560 586 604 604 591 579 574 567 547 543 559 569 561 548 532 520 520 520 525 528 537 553 562 576 596 622 641 650 650 657 668 673 676 686 698 699 684 656 632 638 649 650 660 674 692 707 726 752 772 787 773 741 709 686 657 630 610 591 581 586 572 545 536 553 581 599 618 651 687 722 756 778 803 804 782 754 724 698 674 658 637 615 598 614 634 670 688 690 667 646 617 593 572 552 533 516 534 569 609 652 686 706 725 748 757 746 735 718 701 682 659 638 619 601 577 555 533 512 504 511 525 539 558 582 617 632 612 579 551 516 480 459 454 465 474 487 501 520 549 580 596 589 563 542 529 513 503 510 517 525 543 569 608 647 662 648 623 597 569 541 512 496 496 497 500 509 521 533 547 549 539 541 554 562 564 559 556 558 569 594 617 641 660 684 717 764 756 713 677 662 645 616 596 586 604 637 685 703 685 638 598 583 594 620 653 674 695 708 727 745 747 726 702 673 649 647 660 656 645 620 606 595 589 584 595 609 615 610 610 637 654 662 660 659 650 635 613 588 572 554 540 513 496 498 519 548 574 599 612 621 626 644 662 673 677 672 663 663 675 684 678 659 646 639 633 638 651 669 692 716 736 750 742 732 716 695 674 651 654 662 656 651 670 689 713 739 773 813 848 864 879 872 850 820 779 749 735 745 767 772 760 733 711 689 670 660 652 643 639 635 627 615 598 583 560 543 533 561 581 587 581 584 604 625 644 666 678 684 684 700 710 719 717 723 731 724 699 667 652 639 641 644 653 668 684 695 706 732 751 774 780 781 790 808 837 866 899 936 960 976 992 1016 1034 1053 1063 1084 1110 1115 1118 1106 1098 1098 1107 1124 1129 1119 1095 1074 1069 1072 1084 1094 1094 1073 1030 1014 1023 1048 1084 1118 1116 1085 1019 964 917 901 908 917 926 909 867 815 797 805 816 810 796 786 775 749 719 689 665 643 637 630 643 666 698 710 729 752 784 800 781 729 699 705 743 769 795 837 876 918 926 902 860 829 791 776 794 835 867 922 966 1006 1010 972 912 855 808 763 731 699 665 628 605 578 563 547 531 522 517 507 487 497 506 512 526 554 585 598 602 604 612 617 623 628 636 644 660 678 709 748 788 816 840 863 867 882 906 938 972 980 965 936 915 888 865 859 865 872 882 882 893 897 885 869 867 850 831 803 774 735 691 657 613 581 554 532 520 509 497 472
429 440 449 450 446 441 443 448 437 428 422 413 400 397 400 398 396 389 385 395 409 424 430 423 418 410 417 431 448 464 469 471 475 505 538 557 555 527 499 480 477 496 513 530 554 583 605 635 666 670 658 643 636 634 638 639 627 605 579 577 576 559 545 557 580 603 632 647 632 609 586 561 542 528 535 566 582 585 575 561 567 562 544 538 548 551 538 522 511 516 518 522 529 538 552 565 581 595 610 631 654 666 671 674 682 691 698 710 715 712 692 665 634 620 627 642 662 679 693 710 728 746 753 754 746 724 701 687 664 638 616 598 578 562 551 536 533 565 598 615 633 663 693 720 749 782 803 798 767 738 713 687 667 647 627 606 598 605 627 656 685 688 666 638 610 581 560 542 525 513 531 563 606 637 663 681 695 707 717 723 725 730 711 691 665 640 617 592 569 546 526 511 499 505 520 537 560 584 608 609 589 563 538 508 476 459 454 463 474 486 504 524 551 584 602 599 578 559 541 525 516 516 522 525 541 572 608 643 659 642 619 592 565 542 518 498 495 495 499 508 522 535 549 549 536 542 544 549 541 543 543 553 568 583 597 615 638 670 718 762 753 709 666 634 618 594 581 583 606 641 680 690 658 614 580 580 607 631 662 694 720 733 733 734 723 700 680 659 649 664 681 674 650 632 611 602 599 588 577 584 593 595 612 640 669 681 690 695 689 668 643 616 594 571 551 516 491 494 512 533 563 594 623 647 665 685 705 722 721 708 681 669 674 683 675 649 634 624 631 641 660 673 684 699 712 713 714 698 692 690 672 651 638 642 648 663 666 680 700 731 765 804 848 855 847 835 828 807 777 739 718 717 738 758 763 761 731 705 689 677 676 669 661 649 626 604 575 566 549 533 538 568 601 622 620 614 620 643 670 693 716 726 721 722 730 736 742 744 749 742 714 680 672 668 660 655 650 658 674 685 703 723 736 740 750 767 796 821 847 878 908 939 947 952 949 965 986 996 1015 1046 1080 1110 1123 1128 1130 1129 1138 1155 1156 1147 1131 1115 1111 1109 1117 1127 1126 1101 1074 1069 1083 1113 1133 1139 1125 1062 1012 965 929 928 940 951 955 936 882 843 841 853 857 849 835 822 804 778 748 719 691 670 651 635 627 629 639 663 683 708 734 752 747 714 681 684 716 750 790 811 851 881 881 862 821 785 760 759 798 844 888 929 987 1031 1033 996 936 887 831 786 761 724 682 639 612 596 590 578 566 560 554 533 506 486 489 497 512 541 568 577 573 575 591 613 629 643 658 671 687 702 727 754 779 793 799 804 816 841 875 918 948 953 935 903 874 852 828 816 817 822 826 836 858 876 872 861 854 842 839 825 794 755 720 689 663 628 596 566 540 511 487 466
431 444 451 451 442 434 440 443 430 410 399 391 390 390 391 394 391 389 385 393 404 415 421 416 409 405 410 424 429 431 442 452 464 499 527 536 527 503 478 467 482 504 521 542 571 593 617 645 662 663 642 641 650 663 662 649 626 590 570 558 552 539 544 563 577 600 633 644 630 610 589 567 550 528 516 543 562 572 567 554 551 554 542 530 531 530 518 509 516 522 532 543 547 555 565 584 603 617 634 648 663 673 678 679 686 700 715 730 734 726 698 669 641 621 619 641 666 683 699 716 728 730 725 707 692 682 668 666 658 647 625 604 579 558 541 529 533 558 592 614 631 655 682 707 733 778 792 781 755 730 708 684 661 642 627 607 591 598 619 648 684 686 662 635 607 579 554 531 513 515 530 552 581 602 612 624 637 648 670 702 727 735 713 689 663 636 609 583 558 538 521 506 493 504 518 536 560 583 605 596 572 545 522 494 472 459 453 463 473 491 511 533 564 597 616 610 590 569 550 536 525 530 538 540 542 566 604 638 645 630 603 578 554 537 519 499 494 494 496 508 523 535 547 545 531 539 537 530 536 547 560 559 562 573 583 596 622 663 711 739 733 703 669 632 606 585 571 588 612 641 665 661 626 586 571 591 623 651 688 713 730 744 748 734 714 694 674 660 670 689 696 687 656 640 622 617 610 600 586 572 577 591 615 634 660 678 693 701 697 680 655 624 600 569 532 504 489 489 505 517 549 583 623 662 685 702 712 725 728 713 684 657 649 655 652 636 622 627 639 646 654 667 673 671 680 699 701 680 667 669 656 634 631 645 663 672 680 681 691 713 754 805 844 850 820 806 800 791 777 753 718 698 708 732 758 753 751 729 708 695 684 677 660 648 635 620 583 556 540 530 543 572 614 648 661 656 653 658 674 697 726 740 757 754 756 760 766 766 765 758 728 701 698 697 695 677 664 655 664 681 694 710 718 733 745 767 791 820 846 874 898 912 908 904 907 927 938 964 988 1015 1052 1091 1124 1145 1157 1166 1174 1182 1185 1177 1165 1155 1150 1148 1151 1153 1152 1141 1124 1122 1144 1174 1176 1157 1110 1055 1005 972 958 964 974 987 981 954 902 884 887 899 899 886 867 850 834 808 781 750 720 704 682 659 637 627 624 618 630 652 673 690 692 672 658 664 696 740 771 791 821 851 851 819 781 749 733 757 804 857 907 942 979 1035 1050 1026 962 904 858 816 783 738 688 646 640 651 646 629 615 602 587 558 524 498 485 483 490 510 525 538 543 558 594 628 644 668 686 711 732 750 746 747 760 755 750 757 786 816 866 907 945 937 902 869 839 814 792 781 778 781 786 799 826 833 834 817 803 806 812 806 792 769 752 735 714 687 652 621 587 549 505 469
429 440 444 442 434 430 435 437 425 400 387 384 384 384 384 384 384 385 394 392 400 408 406 403 403 403 403 410 416 418 420 433 455 487 517 519 501 477 464 473 494 510 537 562 574 597 620 645 647 634 617 627 648 665 661 640 611 578 555 544 529 546 568 572 585 608 638 647 636 618 597 572 551 528 513 521 540 551 556 551 537 534 527 520 518 513 509 518 531 549 562 572 573 574 579 598 617 640 655 658 663 664 663 675 690 706 726 743 745 730 702 671 643 617 612 636 663 682 703 718 733 725 705 680 650 631 628 636 645 643 618 597 570 547 532 525 529 548 567 588 609 632 653 682 715 753 771 768 747 728 709 687 670 653 633 610 584 587 610 643 679 685 663 635 610 581 556 531 512 516 526 543 561 568 574 586 602 632 658 691 724 728 702 679 657 631 604 575 551 530 517 500 493 499 515 530 551 571 589 582 562 534 510 487 469 456 451 460 478 497 518 541 565 593 609 604 600 582 563 542 534 543 551 558 556 568 601 631 636 615 588 564 546 532 513 500 493 494 496 508 525 538 541 538 531 527 527 539 551 573 585 578 575 575 589 602 625 664 710 716 705 692 672 635 598 574 570 588 615 642 646 630 590 573 571 605 643 681 705 722 730 748 753 743 720 699 676 680 692 707 708 685 667 650 639 636 631 624 603 581 565 578 601 622 637 652 662 668 672 663 654 623 588 542 509 491 489 499 513 531 546 579 614 647 669 683 686 689 693 689 669 652 634 625 628 619 619 641 648 645 646 645 648 648 659 687 693 678 654 649 638 624 628 655 672 691 703 701 699 713 754 785 807 814 787 774 770 775 772 755 730 694 688 708 731 752 759 742 726 713 692 669 654 639 623 608 582 548 523 532 556 570 607 653 677 692 680 686 687 691 715 748 772 780 783 786 793 789 782 769 741 728 732 730 722 706 688 667 663 678 689 696 703 718 735 755 778 801 820 837 847 857 855 860 865 883 910 938 965 1003 1031 1075 1119 1155 1180 1197 1209 1209 1206 1201 1187 1178 1176 1172 1172 1174 1176 1170 1152 1153 1181 1216 1204 1159 1100 1052 1014 993 993 998 1007 1014 1000 960 931 927 929 938 933 918 900 882 861 837 807 780 766 743 713 681 664 646 628 619 609 611 619 627 631 628 628 641 684 710 735 755 800 833 823 786 748 722 718 751 800 844 884 918 957 1014 1044 1033 977 925 878 836 781 732 692 695 705 688 667 638 618 601 579 553 522 494 481 485 486 501 526 541 557 580 605 638 665 699 716 744 756 760 757 738 726 715 719 739 769 817 864 914 940 928 880 844 811 780 757 740 737 738 748 763 786 800 806 788 760 753 760 771 773 768 766 756 740 716 679 647 611 567 518 472
421 428 431 428 428 430 434 435 425 399 384 391 394 397 403 410 414 419 411 403 398 403 403 403 405 411 418 423 429 436 428 420 434 469 501 511 493 462 462 483 506 527 539 554 563 581 613 626 618 600 588 600 617 630 623 611 592 564 542 519 526 559 587 604 609 623 648 657 646 624 600 578 553 528 510 506 521 530 539 536 527 519 514 505 505 508 518 532 545 566 586 600 596 590 592 608 633 652 657 659 649 647 661 680 697 715 735 746 743 723 692 664 636 615 601 622 648 671 692 715 730 719 695 669 641 610 597 600 616 611 594 574 551 535 523 521 536 548 560 572 591 612 640 669 700 736 756 756 738 721 703 691 678 661 639 610 580 577 599 636 673 684 667 640 616 587 559 533 510 513 523 534 543 552 567 582 606 626 657 696 714 711 682 665 648 626 599 574 551 535 513 502 487 491 505 521 530 548 561 569 558 532 509 486 466 457 449 460 478 497 513 530 547 563 579 594 607 595 572 556 551 561 573 578 579 589 608 633 633 611 586 563 543 527 514 499 494 493 496 511 524 530 533 525 522 525 530 543 562 574 585 571 568 582 592 613 647 680 700 700 671 663 644 625 596 566 570 587 623 640 626 591 571 568 588 625 659 683 695 707 729 758 765 757 737 712 702 699 712 718 714 693 676 663 654 656 656 640 619 589 567 556 574 595 610 623 633 636 637 653 649 616 567 525 494 489 498 517 530 546 559 575 600 622 635 640 648 663 680 679 667 646 624 616 607 612 636 640 646 637 636 637 634 637 654 677 693 684 661 639 627 614 630 657 682 707 726 727 725 743 752 767 777 771 765 764 749 745 746 746 726 696 682 692 718 747 755 741 720 709 692 674 660 641 617 594 558 531 523 543 567 582 609 643 688 699 707 705 708 715 726 751 779 792 805 815 820 817 804 788 767 760 763 756 743 727 712 688 673 674 683 690 700 701 715 734 755 772 788 798 800 804 817 830 849 869 894 918 949 976 1015 1056 1107 1148 1181 1214 1231 1239 1236 1225 1211 1202 1191 1185 1181 1185 1192 1185 1171 1176 1204 1235 1224 1155 1103 1061 1039 1032 1030 1034 1041 1033 1011 977 967 969 976 981 973 957 938 920 887 860 838 831 800 765 729 697 684 677 667 650 628 609 603 599 597 597 598 618 644 664 693 730 777 813 807 769 727 699 711 749 784 812 838 875 923 985 1031 1032 990 941 888 831 784 746 750 735 722 700 649 617 592 566 550 531 507 484 477 486 504 535 550 568 584 603 632 661 680 702 723 747 752 740 724 704 694 698 721 746 782 823 873 909 934 911 878 828 795 763 735 708 689 691 703 717 740 762 776 755 722 704 705 715 731 742 746 735 725 704 671 636 600 557 502 460
418 416 421 426 430 436 436 429 419 401 384 395 407 422 436 440 437 439 432 423 423 428 429 428 433 441 447 454 461 459 450 430 420 445 482 490 471 458 464 492 517 527 533 537 539 557 581 592 580 567 562 584 601 597 589 591 577 552 523 505 532 565 598 620 638 646 654 667 651 626 602 574 548 523 507 500 503 510 516 518 511 506 502 506 514 525 535 545 560 580 600 617 619 607 605 622 639 646 650 640 637 647 667 684 703 723 744 752 743 715 684 656 627 606 597 611 636 658 683 706 715 703 678 654 629 599 576 573 580 583 574 556 538 522 519 524 548 564 572 582 598 617 641 671 704 726 736 728 709 693 678 671 664 651 634 603 579 562 591 629 667 682 664 640 616 587 558 534 515 506 519 533 551 567 586 597 609 631 661 690 697 680 655 643 629 612 591 569 550 539 523 508 493 483 495 509 518 523 544 561 554 532 511 488 467 449 449 460 474 485 496 509 518 536 561 594 611 607 589 572 571 581 593 603 606 612 626 641 636 607 583 563 544 524 517 501 494 493 500 510 517 517 512 513 518 523 535 550 561 567 561 561 577 595 615 628 654 687 693 674 636 615 617 609 587 559 563 590 636 639 612 567 561 577 613 636 647 660 666 697 735 767 785 776 762 744 732 726 729 729 716 698 684 668 672 668 659 643 611 591 579 558 548 559 576 591 603 609 615 646 645 613 566 525 489 492 499 511 526 544 565 583 591 604 611 617 637 668 686 683 660 641 619 599 605 626 650 649 637 628 628 629 630 638 651 666 682 676 666 640 624 608 629 654 681 695 709 718 731 757 758 749 737 736 755 763 745 729 715 719 705 692 675 685 717 745 747 726 698 689 678 670 647 625 598 569 540 529 522 541 571 587 615 643 677 708 723 737 739 738 751 773 796 807 822 831 849 854 836 817 800 796 789 781 768 755 734 708 685 683 684 695 705 716 711 721 731 750 756 767 778 799 822 838 852 874 897 919 944 972 1004 1047 1089 1134 1168 1195 1218 1228 1234 1236 1240 1229 1215 1203 1199 1203 1203 1197 1193 1206 1225 1233 1211 1150 1112 1091 1080 1074 1069 1070 1063 1049 1021 1006 1012 1014 1019 1019 1011 992 973 949 918 900 883 864 825 774 738 722 725 722 705 682 662 645 632 624 612 601 597 592 597 621 656 699 743 780 787 758 712 688 702 729 756 777 808 850 915 958 994 996 977 939 894 848 818 802 784 760 720 672 643 629 614 583 557 529 502 477 479 488 519 543 549 566 594 626 647 660 669 684 709 728 726 707 690 682 679 699 724 758 797 838 860 883 892 889 879 836 794 756 724 694 671 652 653 674 700 721 735 721 696 663 646 662 682 704 712 708 690 670 639 605 562 523 472 453
407 414 423 437 444 444 439 432 416 399 384 400 414 441 458 460 456 452 446 450 446 455 454 462 470 479 485 492 503 496 474 446 424 429 450 460 455 455 466 491 508 518 516 511 516 532 546 556 555 543 543 566 573 563 566 574 557 525 502 507 545 572 603 631 647 651 647 646 645 628 596 571 543 519 502 496 497 500 501 501 503 502 503 518 530 542 556 569 574 583 602 626 628 628 626 633 643 641 633 626 635 656 676 694 712 729 751 758 739 711 680 650 624 601 597 608 625 648 674 701 700 683 654 628 607 584 567 557 554 557 560 547 526 517 519 534 549 571 588 600 612 632 654 683 716 731 727 700 678 656 641 631 629 625 615 594 568 560 583 620 659 668 652 630 606 578 552 532 518 506 511 535 556 578 604 616 626 640 666 682 676 652 633 623 609 593 574 555 544 539 528 513 499 485 483 498 502 512 536 555 548 530 510 484 456 449 449 458 471 481 488 495 507 523 547 578 608 616 602 591 592 606 621 632 634 636 642 640 630 604 576 556 539 545 535 513 490 493 499 506 507 507 510 519 530 537 540 555 560 555 552 574 589 600 611 627 654 690 684 652 621 592 581 581 566 545 556 596 638 627 581 559 565 600 621 628 629 615 646 692 726 749 767 771 781 773 761 758 746 737 718 695 682 691 683 668 651 624 607 610 597 573 552 538 545 559 574 586 601 628 636 611 571 520 495 485 490 488 511 535 566 590 595 600 609 629 643 663 682 679 659 637 610 595 606 630 654 647 631 622 622 623 631 637 642 653 661 671 672 644 616 603 621 650 664 672 671 692 719 739 738 719 705 711 747 753 741 726 709 686 683 675 663 682 717 733 728 701 674 662 663 659 632 601 571 548 527 524 519 531 555 588 611 639 659 692 721 743 752 762 769 790 820 829 830 847 861 868 869 851 835 831 817 804 795 777 749 715 693 693 697 692 710 722 735 727 725 732 750 766 778 800 821 837 859 886 912 936 958 973 1001 1035 1072 1109 1144 1159 1170 1182 1213 1230 1243 1238 1232 1227 1223 1219 1221 1220 1224 1227 1245 1240 1202 1159 1141 1132 1127 1119 1112 1097 1077 1056 1041 1046 1053 1056 1062 1060 1049 1030 1000 977 952 932 907 873 823 783 767 769 769 761 736 710 690 679 675 664 651 637 619 601 588 585 614 657 700 740 755 738 694 677 698 719 746 778 811 857 901 932 945 953 957 934 907 893 871 841 806 762 721 692 694 677 647 611 575 545 516 490 476 478 501 515 525 567 609 630 637 634 637 652 675 686 678 669 664 665 688 714 739 773 795 815 829 832 850 877 880 837 793 752 713 690 664 638 626 634 658 678 690 689 677 649 618 609 631 658 677 682 665 640 611 574 528 485 453 460
419 424 430 438 445 441 435 427 414 397 384 391 416 441 459 461 462 468 472 482 485 479 478 488 504 522 528 538 543 534 505 468 442 432 433 438 443 453 464 480 491 497 498 491 497 507 525 534 537 524 529 548 551 531 549 556 541 505 493 520 550 586 613 616 621 617 615 638 648 626 594 566 539 512 496 499 499 500 502 501 501 502 514 521 529 543 560 569 571 579 594 617 630 639 649 652 648 637 619 622 640 658 679 697 711 730 752 761 740 708 677 651 626 605 594 601 621 645 671 694 692 671 645 620 595 582 573 565 554 545 541 535 521 515 524 539 558 576 596 618 637 654 671 695 723 735 719 696 668 643 618 601 595 595 594 578 562 558 580 611 647 653 639 616 592 570 547 532 517 507 505 532 558 585 608 627 644 658 671 675 663 644 626 606 592 574 554 538 526 521 518 508 496 486 483 487 499 516 531 543 537 517 495 471 449 449 449 458 469 480 492 502 507 517 538 565 603 620 621 615 618 637 651 662 666 662 653 639 616 588 568 555 562 552 540 507 490 492 499 507 514 522 528 532 540 543 547 557 558 545 563 579 585 583 590 612 649 675 670 642 620 595 569 560 548 537 555 586 615 609 558 551 576 590 610 602 590 606 642 674 696 709 730 760 777 783 791 780 760 736 716 710 713 699 686 659 635 616 620 629 615 584 566 550 538 540 544 556 575 597 609 599 578 537 483 488 490 488 493 527 567 596 614 620 625 631 635 656 658 657 648 638 610 592 601 622 634 633 622 618 622 627 627 633 633 637 650 656 656 633 612 599 616 636 644 639 652 671 694 704 708 687 676 704 737 747 749 727 697 676 664 659 652 671 699 706 694 670 651 636 635 631 603 566 543 525 518 516 527 543 547 560 584 612 633 661 689 714 733 752 763 784 813 828 834 849 860 879 889 887 880 867 847 830 816 792 748 720 709 711 712 703 705 724 739 750 759 744 749 758 776 789 810 831 858 885 916 938 957 972 999 1032 1065 1098 1115 1128 1126 1141 1174 1207 1225 1234 1236 1240 1232 1231 1230 1223 1216 1214 1229 1228 1187 1165 1152 1146 1146 1150 1147 1128 1104 1087 1080 1075 1064 1063 1067 1068 1056 1045 1038 1006 977 950 917 877 835 812 809 813 809 792 760 742 720 714 715 706 692 675 658 633 606 582 578 612 657 706 727 712 675 669 695 723 755 792 827 859 882 889 891 908 921 919 902 898 889 867 822 780 756 752 732 700 663 623 589 558 531 509 490 475 478 501 522 568 594 613 604 607 612 622 626 625 628 645 658 680 697 725 754 771 777 781 773 782 816 860 858 836 797 749 717 696 677 649 613 607 615 630 640 647 650 629 607 583 589 618 642 648 637 614 585 548 506 459 453 480
425 430 433 435 433 435 433 429 416 397 384 388 404 425 437 452 467 482 497 510 514 511 508 513 529 553 558 567 582 567 531 497 472 455 441 433 433 433 446 458 464 472 474 477 497 516 529 525 518 511 522 536 528 516 533 534 516 491 500 530 561 595 608 602 584 574 604 637 647 622 589 560 528 504 496 506 519 525 516 510 505 506 509 516 520 525 536 540 545 559 582 606 630 650 661 666 652 629 612 622 636 652 670 689 704 723 744 753 739 706 678 654 629 608 592 597 613 634 658 685 688 668 640 616 597 583 573 562 552 545 536 524 516 513 524 548 572 586 606 633 657 682 700 715 723 725 709 688 667 642 625 603 581 572 566 562 556 561 580 608 639 648 632 607 583 562 541 527 511 501 508 538 565 592 621 650 666 670 674 673 656 643 626 607 582 559 544 530 516 508 504 498 491 484 478 487 502 513 524 534 526 503 483 460 449 449 449 458 468 481 498 513 527 531 540 561 597 629 641 646 649 659 668 674 676 684 666 641 611 595 582 581 572 560 532 503 488 491 501 516 521 528 534 535 538 539 545 550 546 543 555 565 564 568 588 616 640 651 641 631 626 606 585 560 546 534 546 578 588 571 541 547 561 568 574 573 582 604 637 657 663 672 700 736 771 800 820 802 774 758 750 736 716 695 666 643 627 630 639 633 614 594 573 560 550 535 529 529 536 555 571 577 566 538 496 482 488 487 498 520 556 595 624 632 627 626 625 634 638 633 635 633 614 593 589 605 610 608 609 616 619 622 625 628 634 640 645 648 637 619 608 596 611 624 624 625 641 664 680 684 678 664 678 704 737 761 751 719 685 664 665 659 645 657 675 686 673 655 631 613 604 594 563 537 521 517 513 519 544 562 569 566 568 582 606 627 654 676 690 704 723 748 776 800 824 847 864 890 908 912 916 893 867 852 831 796 764 735 725 728 728 726 719 721 741 765 775 786 764 759 761 770 791 810 833 857 884 903 927 953 983 1019 1052 1069 1082 1069 1082 1121 1167 1198 1208 1212 1232 1242 1213 1194 1188 1176 1164 1165 1180 1183 1168 1144 1126 1116 1121 1136 1135 1123 1116 1108 1101 1081 1059 1030 1018 1021 1031 1042 1043 1032 998 967 935 890 866 856 851 853 846 823 796 772 759 756 746 740 729 716 692 661 628 595 569 579 618 670 690 680 657 654 692 729 770 806 845 864 858 843 840 862 878 866 857 864 869 865 855 833 819 789 759 721 685 652 616 581 551 527 511 486 475 482 517 551 564 563 568 567 578 569 571 589 617 652 670 681 703 741 768 771 755 735 730 754 791 819 831 834 812 763 725 700 680 646 618 594 580 582 587 590 593 590 579 564 557 579 610 615 605 590 568 530 481 453 463 507
424 426 425 425 428 433 438 431 414 396 386 384 392 408 423 441 458 482 498 508 514 520 526 529 530 542 555 574 588 571 550 532 513 490 473 458 442 437 434 434 437 444 459 471 496 513 527 523 501 500 516 520 510 507 531 530 502 488 505 537 570 597 592 575 552 569 606 626 634 608 576 543 518 499 494 523 536 536 523 519 523 522 520 516 516 518 519 528 541 560 579 600 623 646 669 673 650 622 608 615 630 641 656 673 691 709 735 748 737 708 684 660 632 609 591 591 607 628 654 671 677 661 636 610 588 568 552 542 538 534 523 513 509 509 523 554 582 603 628 652 673 698 722 732 726 713 689 667 648 634 622 605 593 575 560 549 552 569 584 610 642 653 637 611 587 564 540 523 504 501 518 544 566 592 621 644 660 660 657 650 642 635 634 615 590 570 555 545 533 520 510 507 496 487 479 478 494 499 515 525 518 492 484 457 449 449 449 457 469 480 497 520 543 551 555 573 594 635 660 674 675 667 665 665 673 685 673 648 631 617 606 598 582 558 527 498 486 492 505 513 518 522 526 527 525 530 533 534 534 537 547 556 565 581 603 623 632 627 615 615 615 609 602 575 551 534 540 560 563 538 535 537 541 549 554 567 578 595 622 634 639 653 681 716 753 795 817 816 799 780 764 743 709 675 655 647 651 652 648 633 609 595 577 561 551 553 543 528 522 524 529 539 547 532 504 483 478 488 497 519 551 589 619 627 615 617 617 614 611 609 613 618 605 590 585 583 593 602 615 623 634 642 647 642 640 641 640 640 628 614 605 595 605 609 612 627 650 670 672 671 654 656 685 713 745 759 748 711 681 674 678 673 657 642 648 650 651 634 620 599 580 558 537 514 506 510 516 529 565 590 601 603 602 602 610 623 635 649 665 673 687 708 737 766 794 824 853 875 894 909 911 905 893 872 848 809 784 755 738 739 740 744 740 737 749 770 793 802 793 779 783 795 794 802 813 824 840 864 896 923 955 984 1005 1013 1008 1030 1073 1121 1172 1191 1193 1188 1213 1230 1203 1166 1131 1113 1105 1103 1119 1129 1118 1103 1085 1069 1065 1073 1079 1083 1090 1091 1087 1065 1034 993 973 973 988 1014 1030 1026 1019 992 950 923 900 886 883 884 876 854 831 812 801 792 781 775 764 748 719 683 648 616 583 565 580 620 642 636 630 655 693 733 770 806 844 849 828 803 806 829 832 824 805 810 840 857 862 864 857 829 789 745 710 679 635 601 577 558 533 506 478 473 499 520 534 539 545 538 530 541 551 585 626 665 691 705 726 743 754 745 715 693 698 730 758 779 820 842 824 779 737 697 664 637 621 609 578 559 558 552 545 538 537 534 531 540 562 577 571 562 546 517 467 453 479 531
418 416 416 420 427 432 435 429 410 395 386 384 387 397 411 427 443 456 469 480 491 505 514 523 516 526 551 565 568 563 554 553 560 548 526 503 488 478 469 456 444 441 441 454 472 493 503 495 486 500 504 505 494 513 537 530 499 485 505 543 570 576 572 543 543 576 604 611 605 583 562 533 508 494 497 516 528 520 518 527 534 539 540 539 538 532 528 524 539 558 573 591 612 635 657 659 637 613 605 617 637 651 662 677 694 712 732 747 740 714 688 662 635 608 585 591 607 629 650 668 667 648 621 600 576 549 532 524 514 514 505 508 513 517 526 552 590 618 646 670 681 692 711 724 718 694 668 641 623 611 605 595 589 575 555 545 555 575 589 611 643 654 644 616 590 567 543 521 504 501 518 539 559 578 603 618 625 624 619 613 621 634 642 632 605 592 577 564 552 541 529 517 510 491 477 472 477 487 503 514 509 490 482 463 449 449 449 457 469 481 501 518 533 545 555 571 593 624 661 682 685 669 649 649 664 682 679 653 633 620 611 597 576 544 513 493 486 492 501 511 514 516 515 518 522 528 533 541 551 551 557 569 588 605 623 628 625 605 588 585 599 608 610 589 560 534 534 545 545 529 530 544 564 573 584 592 589 587 601 613 628 652 676 708 737 769 806 817 813 792 764 735 706 685 681 682 679 665 645 628 623 602 576 562 573 582 577 556 536 519 512 508 509 511 495 478 476 476 484 506 537 578 611 610 596 598 600 594 586 584 593 599 588 576 571 585 597 613 633 647 658 668 672 663 659 652 641 633 623 613 602 592 600 609 624 645 657 664 667 647 638 657 686 714 751 765 740 717 703 703 700 692 665 653 634 619 608 599 589 575 558 537 514 506 515 515 528 556 593 630 644 642 642 646 653 657 654 651 662 679 691 700 716 736 762 786 812 833 854 878 904 915 919 892 862 831 808 768 744 753 763 775 774 768 767 783 805 815 812 804 816 828 837 837 836 836 836 845 871 894 913 938 956 967 997 1020 1070 1126 1160 1174 1155 1154 1171 1184 1169 1147 1117 1087 1055 1048 1057 1068 1060 1045 1036 1012 1001 1005 1011 1019 1026 1031 1039 1036 1016 974 936 923 937 964 989 1008 1003 986 977 956 934 921 911 913 906 892 865 846 836 827 812 803 794 778 745 704 671 635 601 573 559 573 597 603 619 659 696 733 770 806 837 834 801 768 776 790 809 803 770 770 788 817 840 851 845 828 813 768 725 683 651 635 622 601 570 530 491 473 486 508 524 526 517 512 526 542 571 608 641 680 706 737 744 749 741 710 677 664 678 698 722 754 798 831 819 771 728 692 662 640 641 634 611 599 581 568 554 542 530 520 507 510 522 531 537 533 524 503 458 453 489 534
408 411 416 421 424 430 430 424 407 395 387 384 384 392 400 414 426 437 441 446 453 464 474 483 504 529 547 555 551 541 546 573 590 591 572 561 549 538 530 519 494 460 443 444 451 455 471 474 477 493 495 483 493 526 547 536 498 482 508 543 564 559 536 525 541 566 582 577 570 555 546 526 501 491 499 512 507 507 519 530 543 555 565 563 560 552 538 527 533 547 558 578 600 626 648 650 630 608 603 619 637 654 666 683 702 720 742 746 735 709 685 657 627 598 582 590 609 633 646 661 656 644 620 600 577 558 545 531 514 502 508 521 540 552 564 575 591 617 649 668 675 676 688 706 704 682 654 635 615 601 589 576 572 566 552 545 561 581 594 615 645 660 650 621 595 572 545 523 499 502 514 533 547 562 578 594 599 595 587 588 605 636 654 643 620 606 592 576 557 544 530 510 493 489 493 481 469 475 486 497 495 484 484 467 449 449 449 462 475 486 497 509 514 518 534 556 582 615 652 671 673 655 631 635 663 687 681 652 623 600 585 570 546 527 502 490 486 490 499 507 507 507 507 519 536 549 560 572 577 578 582 587 604 619 640 638 621 594 567 567 579 589 595 581 563 534 529 535 529 526 541 572 597 611 626 628 620 604 604 616 635 657 682 700 721 748 789 819 816 788 757 742 726 714 710 709 695 669 645 640 626 601 573 572 592 609 603 581 558 543 536 523 506 496 487 480 476 476 476 484 525 567 589 584 570 566 568 566 563 573 579 574 569 564 578 593 604 626 653 675 676 691 691 679 673 662 647 633 621 611 598 588 596 615 634 654 665 657 643 633 634 649 677 710 744 754 736 719 714 715 711 693 670 651 636 615 587 571 558 546 537 525 504 517 527 543 554 567 608 642 661 661 662 673 680 691 686 684 697 706 718 724 724 731 745 762 782 808 833 860 889 918 923 916 888 855 820 781 767 769 786 807 809 803 804 816 831 839 838 823 834 858 877 881 880 878 884 875 883 906 937 946 957 971 990 1028 1073 1121 1133 1130 1113 1106 1113 1121 1121 1116 1100 1062 1025 995 995 1002 999 985 975 961 948 945 952 963 966 971 995 1004 995 964 914 884 884 907 930 951 967 976 990 978 971 964 957 950 942 925 903 885 871 861 847 836 825 806 764 721 679 645 615 591 565 552 561 582 610 636 673 712 753 795 816 803 768 736 736 760 789 783 747 730 748 779 797 802 813 814 816 782 740 704 685 665 652 634 598 551 501 477 473 494 503 505 511 533 555 572 599 640 677 696 716 726 736 720 707 677 651 649 666 680 710 747 788 809 803 764 728 701 678 678 665 659 642 633 626 613 591 568 549 536 516 498 498 504 509 516 511 493 453 457 493 531
408 411 413 416 421 425 428 420 404 395 388 384 384 388 394 401 409 418 422 426 434 439 451 477 512 533 540 539 527 523 542 568 593 595 583 570 567 554 545 540 531 518 479 464 458 452 452 457 468 473 473 471 496 516 532 521 494 477 500 533 546 536 511 511 540 552 557 547 536 535 531 517 496 491 496 499 509 519 517 528 544 563 580 587 583 568 550 532 531 547 565 579 602 627 652 652 625 604 598 611 632 652 669 692 712 730 748 745 727 699 673 646 616 596 580 583 601 618 629 639 645 644 635 615 595 571 550 536 521 502 505 534 571 594 602 612 622 633 647 654 652 649 662 684 687 679 656 637 618 603 590 584 576 567 553 542 558 578 591 609 644 668 652 621 593 567 545 524 503 498 512 526 536 546 556 568 573 568 567 583 609 644 658 647 619 602 586 570 551 530 509 493 498 511 509 492 477 468 470 478 479 478 480 459 449 449 451 462 473 485 492 495 498 507 527 549 576 606 643 665 659 632 614 628 664 690 680 649 614 586 564 547 534 519 500 489 485 489 497 498 502 509 525 536 552 564 577 595 603 599 595 596 611 628 648 644 618 591 564 555 563 571 575 577 562 537 520 521 525 538 559 589 620 649 657 657 645 629 614 616 641 662 683 696 711 739 765 792 793 781 768 756 744 741 733 719 700 674 659 646 627 589 579 588 612 626 621 593 579 574 573 557 532 509 496 488 482 476 476 476 507 537 556 541 539 538 530 533 547 556 559 560 555 576 591 602 623 644 672 689 690 704 705 697 686 674 657 642 619 605 590 588 598 611 633 652 663 648 629 628 638 655 674 694 724 735 725 696 683 685 682 673 660 653 640 618 602 586 571 552 531 514 502 519 544 557 563 571 591 617 626 634 643 657 670 680 683 694 714 737 759 754 752 756 765 780 799 813 828 843 871 899 920 922 917 881 841 811 795 791 800 825 833 831 831 843 861 872 868 855 844 875 900 916 921 923 924 920 913 923 956 985 997 993 1013 1046 1089 1121 1126 1101 1082 1066 1061 1059 1058 1061 1054 1026 994 961 936 941 940 938 924 914 897 892 900 907 913 918 933 962 969 950 904 854 844 853 874 889 914 944 962 965 964 962 955 955 956 933 927 918 907 891 877 861 840 808 767 721 685 657 627 603 587 561 549 556 574 600 632 674 719 754 773 767 740 703 696 728 760 762 729 708 717 748 766 774 766 802 814 793 768 744 716 698 675 651 608 555 509 475 473 488 505 528 544 558 578 607 631 666 693 701 704 694 688 679 664 641 630 643 669 698 721 749 788 803 787 746 725 716 704 698 687 669 657 654 649 637 617 591 566 544 521 498 490 500 503 500 502 480 451 467 503 537
406 409 409 410 415 422 424 418 403 395 388 385 384 386 391 395 402 407 416 423 437 448 461 486 499 522 526 518 505 511 531 554 575 578 570 550 544 536 528 533 543 532 497 480 479 479 473 463 462 462 462 464 480 493 498 492 478 471 485 509 516 506 495 513 533 542 536 540 527 519 516 503 491 497 501 507 519 539 541 534 540 564 590 606 599 583 561 539 532 557 573 589 613 639 658 658 629 600 595 608 625 651 676 698 716 733 750 743 717 688 663 639 620 602 586 579 585 595 605 623 645 654 652 632 615 587 554 528 505 496 505 557 589 605 610 619 629 641 643 642 630 635 645 667 683 685 670 648 627 612 607 600 591 579 557 541 546 562 578 613 647 665 650 617 592 567 542 521 500 494 510 518 524 531 540 546 553 558 565 586 611 649 660 642 617 594 572 549 533 518 506 513 527 525 517 494 479 471 468 467 465 467 468 455 449 449 449 462 472 481 490 496 504 516 530 556 582 610 642 658 644 615 599 624 661 686 676 639 608 585 563 546 528 516 501 489 485 489 496 505 513 519 531 545 558 573 591 594 598 593 590 593 611 638 650 642 617 593 566 547 548 558 558 553 549 525 520 527 543 555 573 605 644 678 680 671 661 649 634 622 631 650 670 685 704 721 743 761 772 782 780 771 771 774 758 736 711 688 670 650 608 593 597 615 635 645 635 604 601 606 611 591 561 540 522 505 491 479 476 480 491 507 511 516 508 510 526 552 549 551 551 551 565 595 616 628 640 670 689 700 703 720 719 711 702 678 661 641 620 606 588 588 598 613 630 643 647 633 624 624 647 664 680 698 717 727 715 690 662 637 634 636 634 630 622 618 603 587 582 570 539 512 502 514 535 540 545 549 563 575 586 599 616 630 641 651 668 688 718 748 779 789 784 772 778 793 815 836 848 849 861 885 908 930 927 900 871 852 836 820 823 840 851 859 865 873 890 900 898 885 887 887 915 943 961 972 962 955 940 935 967 1004 1024 1038 1059 1088 1125 1148 1141 1109 1075 1054 1034 1022 1009 999 1000 986 963 934 906 892 889 891 875 870 861 855 850 857 861 867 884 912 933 927 885 839 809 803 819 835 865 888 900 906 900 902 904 915 920 914 903 901 895 896 895 875 844 805 759 719 690 667 655 635 613 587 558 542 543 561 594 642 679 710 725 733 713 675 658 695 739 744 712 689 693 726 743 742 745 775 794 788 778 774 752 718 689 652 602 550 500 469 471 513 554 574 588 599 612 638 663 671 678 675 665 652 643 632 615 610 619 642 677 706 729 750 788 805 772 729 708 699 686 672 658 650 640 634 629 630 617 597 576 545 519 496 486 498 498 488 485 463 451 473 522 559
405 405 406 409 412 417 421 414 403 396 389 386 384 385 387 392 397 402 406 420 438 449 471 495 495 496 502 491 487 497 512 534 556 569 559 533 520 510 506 509 526 523 500 500 508 518 519 514 505 484 464 462 463 472 473 469 467 469 471 481 490 490 490 500 518 513 513 517 505 496 493 490 487 509 522 517 529 555 561 557 556 563 596 619 615 595 573 550 538 553 580 595 620 646 665 657 627 602 591 603 631 657 681 703 716 725 733 727 716 689 666 649 628 614 594 579 579 591 603 627 645 662 660 645 628 605 561 515 491 503 518 545 572 579 586 597 609 621 621 620 620 628 639 655 680 689 684 660 642 629 615 601 586 574 552 533 543 561 578 605 640 659 647 621 595 565 538 514 494 493 509 524 543 545 545 546 550 552 566 593 622 657 662 638 611 584 562 543 520 517 530 544 540 531 511 489 484 485 479 469 463 460 460 456 451 449 449 457 471 476 484 492 502 517 531 554 580 610 641 647 629 604 592 615 651 673 665 640 615 593 571 550 537 523 507 490 485 488 496 509 515 521 534 550 567 588 589 588 581 574 577 595 612 638 645 631 609 581 556 540 539 551 551 540 532 516 520 540 566 583 593 617 639 679 680 677 680 676 660 644 630 635 645 666 685 702 719 741 769 788 793 788 792 794 785 754 720 696 676 635 613 613 625 647 663 658 636 623 629 635 629 601 578 562 546 524 496 479 473 477 478 481 492 497 498 524 557 578 583 574 560 555 558 591 623 638 659 694 711 709 715 735 740 720 703 679 654 633 620 612 588 586 602 617 627 628 624 615 613 630 657 679 697 707 710 715 703 688 668 639 611 595 588 584 584 589 575 571 568 561 543 513 502 515 524 533 540 541 545 556 575 601 618 632 644 655 667 690 717 748 787 809 816 804 795 801 822 846 862 879 882 886 907 930 934 923 904 892 872 851 853 861 878 895 897 904 918 927 929 927 925 926 927 961 994 1009 1015 995 973 961 974 1003 1040 1070 1101 1131 1167 1178 1157 1120 1095 1074 1054 1030 1005 983 956 935 921 900 875 864 853 843 832 823 818 813 806 815 820 827 848 872 897 889 859 822 781 771 779 808 842 864 860 856 846 843 846 866 887 883 858 848 861 877 886 876 841 796 761 734 716 702 686 669 642 610 583 557 541 536 556 598 633 660 693 702 682 646 633 677 728 733 698 670 673 703 717 714 727 750 760 759 771 784 774 732 687 639 591 541 494 465 483 538 585 611 617 621 629 647 662 662 648 626 613 606 596 585 581 589 610 638 666 693 720 751 789 803 767 719 680 657 643 625 604 597 592 588 601 603 594 581 566 553 520 491 481 484 481 472 458 449 459 494 528 576
406 406 406 407 409 414 415 409 401 396 389 386 385 384 385 389 394 398 403 408 425 439 458 483 485 477 472 465 468 479 503 525 545 555 548 530 510 498 488 506 529 530 527 525 539 561 569 565 546 525 501 491 475 467 467 467 476 485 479 473 473 476 482 488 484 489 488 486 486 486 486 486 502 528 534 526 533 556 566 571 570 578 603 628 623 602 581 558 541 557 577 599 628 652 663 653 620 597 591 607 636 663 686 696 700 699 703 712 712 695 675 659 642 617 597 582 579 588 620 640 656 664 664 648 627 600 556 519 491 492 515 530 540 550 555 562 574 586 598 604 611 630 643 656 679 693 694 674 657 641 621 598 578 558 539 528 539 562 584 610 642 665 655 631 604 575 543 516 492 491 506 531 559 577 578 574 573 579 587 605 635 658 662 630 607 583 558 537 532 546 553 552 545 520 501 495 502 510 503 492 482 473 461 456 450 449 449 459 462 465 477 486 496 507 517 544 581 612 641 639 617 594 586 607 641 669 665 637 614 592 568 551 541 525 512 494 485 488 494 507 513 522 537 555 575 589 590 575 565 571 588 597 612 625 629 616 594 573 549 541 531 539 545 534 519 514 527 550 576 590 597 613 632 646 661 661 684 689 673 663 656 639 640 647 660 679 706 725 757 779 784 792 804 803 790 759 730 696 662 642 632 639 653 671 671 661 641 636 630 637 621 597 573 556 545 532 499 472 466 467 474 491 513 520 534 563 593 611 605 590 579 569 559 579 608 639 660 704 720 713 725 749 748 727 697 668 645 636 642 617 590 577 595 612 627 623 611 604 614 635 663 679 691 695 689 681 681 682 672 655 626 598 573 552 540 541 546 541 536 539 530 513 501 515 529 548 563 573 579 585 592 611 634 652 664 682 704 717 733 760 798 826 838 833 827 829 840 858 881 895 911 921 928 948 957 950 933 915 894 884 877 886 903 917 929 933 940 952 955 967 964 959 956 972 998 1026 1040 1031 1008 997 993 1008 1046 1089 1132 1173 1201 1197 1176 1146 1120 1098 1086 1064 1031 991 954 921 894 873 859 841 830 818 804 796 787 777 777 778 790 801 821 844 854 854 834 813 767 743 761 789 832 854 838 809 801 793 799 832 864 867 842 812 813 832 855 855 841 807 786 767 746 731 713 690 661 638 607 580 552 534 536 563 595 628 667 677 649 615 617 664 711 716 680 651 648 673 683 683 708 718 724 723 749 785 780 730 680 632 585 535 489 463 485 533 567 584 595 616 640 658 655 639 613 585 568 559 551 554 573 600 615 633 651 687 722 760 776 785 751 715 685 657 627 603 584 563 555 563 584 582 576 554 552 541 525 485 466 468 456 447 447 457 490 506 540 574
